54.5 -6.5 62.80272766670153
-174.5 -53.5 63.248581001768926
-2.5 1.5 62.72966595166332
59.5 -51.5 62.562545548409645
177.5 88.5 60.6829901653624
32.5 -44.5 68.22087470956296
56.5 -6.5 63.64155842441177
53.5 -17.5 63.10327676013549
-120.5 -65.5 62.87501603782156
179.5 82.5 63.028503611469795
-149.5 -45.5 62.36606256085516
-103.5 89.5 62.5714551089753
-128.5 -67.5 61.763918553587985
-33.5 27.5 62.794717843341424
160.5 -41.5 62.435354703792385
97.5 -13.5 65.94890795422394
-160.5 45.5 61.898494814011535
-147.5 -45.5 62.39936152806431
170.5 78.5 62.82365384612026
79.5 -5.5 63.9637465006421
14.5 -44.5 62.70824053074973
-49.5 59.5 62.910897986194726
-101.5 -62.5 61.197513717753665
95.5 -16.5 61.506570289197555
-33.5 -39.5 62.40256851610758
-147.5 37.5 61.61907157248651
91.5 -18.5 61.98910108313814
90.5 -20.5 61.459893174352885
78.5 -4.5 63.93893721112841
-144.5 -2.5 62.290490180342104
167.5 84.5 62.5713110839803
-48.5 53.5 62.15222260839345
-144.5 9.5 63.331982139371114
-29.5 -33.5 61.450602793913795
0.5 -17.5 62.10320418270988
173.5 -57.5 63.36435232750918
-151.5 26.5 62.47574664180207
55.5 -9.5 62.62208335852797
85.5 -2.5 65.44332919008686
-33.5 -45.5 62.52296123046413
52.5 -21.5 62.82766538853558
-98.5 89.5 62.5714551089753
-38.5 46.5 63.10796794656083
-177.5 46.5 62.739266493603694
-161.5 -47.5 62.57086962105429
-50.5 85.5 62.43251397710376
-153.5 -46.5 62.164000448596596
-177.5 -54.5 63.0085351178283
-1.5 -8.5 61.980166560670405
-50.5 84.5 62.64944670914993
179.5 -55.5 63.062610092100094
-31.5 29.5 61.696892338402655
83.5 -8.5 62.882012119953586
-173.5 -51.5 63.0105787630653
-50.5 83.5 59.484870542189526
-167.5 -48.5 62.59061442654016
-148.5 38.5 61.61907157248651
-26.5 -12.5 63.55193482888729
-145.5 1.5 61.57242035489971
-145.5 -44.5 62.70283010996116
55.5 -51.5 62.303839709772475
53.5 -26.5 62.99280125842619
139.5 -62.5 63.27524599588434
178.5 88.5 60.58292560634146
-173.5 -50.5 61.098475658937424
-26.5 -11.5 63.724453302436906
57.5 -52.5 62.16942223139852
-145.5 -71.5 62.73011661996665
172.5 79.5 60.686026107035
156.5 -33.5 64.91082682970584
-47.5 8.5 61.34748025476983
95.5 -29.5 59.82341521428904
173.5 48.5 62.495840119142066
-26.5 -9.5 63.90343134887258
-18.5 2.5 67.46158757881577
54.5 -49.5 62.574664521577105
-144.5 -41.5 60.7968209693884
-172.5 48.5 60.22310188128259
55.5 -6.5 63.071819709522934
15.5 -45.5 62.827468157438695
-153.5 89.5 59.959080120795676
-159.5 -72.5 60.7787396377073
80.5 -6.5 63.97138835341298
-161.5 47.5 62.00029269113296
-56.5 21.5 62.170829632984926
-104.5 89.5 62.5714551089753
-26.5 -19.5 62.121688642121796
54.5 -48.5 62.341237962220966
-170.5 -49.5 62.67954190017151
-26.5 -10.5 64.54779610376315
14.5 -45.5 62.220960185050856
50.5 -44.5 64.21564217532809
7.5 -57.5 63.4694804956496
-144.5 8.5 62.833625871495215
-145.5 32.5 63.475797054077894
-25.5 -2.5 69.12945484767688
-53.5 55.5 60.127163667407196
-25.5 -8.5 63.10369543230819
98.5 -6.5 62.635891887270155
93.5 -17.5 62.275759400859386
-105.5 89.5 62.5714551089753
-159.5 38.5 60.11592192085508
-35.5 12.5 63.20363670934352
-147.5 -28.5 61.7274360281716
-113.5 -65.5 61.438327435279255
-47.5 34.5 62.60907886390121
56.5 -12.5 62.70376489385521
52.5 -45.5 64.33399893820302
174.5 80.5 62.93562501332135
92.5 -18.5 61.63817267782499
-161.5 41.5 61.5949091435807
-16.5 45.5 61.77678278084785
-151.5 -45.5 62.29700513099611
52.5 -12.5 63.773904504119294
-124.5 -66.5 62.240275934534196
-161.5 39.5 61.634614991514255
176.5 81.5 63.20397849041416
-0.5 -41.5 61.35008732195447
160.5 -43.5 63.21745028882902
-107.5 89.5 62.5714551089753
88.5 1.5 61.60989641181037
-56.5 16.5 61.044081546020934
-17.5 44.5 61.94339388941307
-164.5 -48.5 62.72276020405473
-19.5 4.5 62.21157880457528
179.5 88.5 60.58292560634146
58.5 -7.5 63.141669511649646
-24.5 7.5 61.91297052193078
4.5 -45.5 63.181460472285174
36.5 -39.5 63.25285255158251
-157.5 -46.5 62.18416141741321
64.5 18.5 61.42670060989377
68.5 16.5 61.011427407478635
-148.5 -45.5 62.360171637517034
-135.5 -70.5 61.192586498044875
-20.5 37.5 72.01096106833887
-28.5 -26.5 63.39524091935895
56.5 -17.5 62.99447488155612
-145.5 -33.5 62.24128821806972
-144.5 7.5 62.58249067443502
-158.5 -72.5 60.7787396377073
135.5 20.5 65.71940790764519
-1.5 -38.5 63.29203133327415
-160.5 38.5 59.99686232201003
-0.5 -30.5 61.8934280833263
59.5 -8.5 61.64040872778827
50.5 -3.5 62.40989100052473
-168.5 89.5 61.775594335182824
15.5 -42.5 62.199550600766216
0.5 -20.5 63.26645854359675
-145.5 -5.5 61.90149145022827
154.5 -42.5 63.621193031294496
-128.5 -69.5 59.51267319754209
54.5 -7.5 61.28971411353652
-148.5 89.5 59.829514423738765
-35.5 20.5 62.49866652219368
-151.5 25.5 62.363280802265265
-147.5 -21.5 63.129797595881826
-142.5 18.5 62.81454326112495
25.5 -47.5 63.04181587293802
152.5 -37.5 60.093404785499544
-55.5 26.5 63.01992924836541
-144.5 -4.5 62.33560977671752
-167.5 89.5 61.775594335182824
53.5 -15.5 63.120956887891474
-159.5 -46.5 62.683335460591096
167.5 54.5 59.168983195844184
161.5 -44.5 62.861166131258166
-119.5 -65.5 62.934611863671044
15.5 -43.5 62.67912793370328
-40.5 39.5 62.70317778489545
41.5 -48.5 62.65775059682069
-106.5 -63.5 62.44171056572872
-166.5 -48.5 62.59061442654016
-23.5 55.5 61.489143957945096
-166.5 89.5 61.775594335182824
-144.5 6.5 62.36253401808827
-144.5 14.5 62.565601211332186
89.5 3.5 59.98646818319102
30.5 -46.5 68.82759536888756
-24.5 -7.5 63.199452980240785
-160.5 44.5 61.823292875689475
-98.5 -62.5 59.94586413966243
122.5 -62.5 61.590713434871425
56.5 -16.5 62.88948078178856
-144.5 -71.5 62.73011661996665
-51.5 85.5 62.00737763747498
84.5 -7.5 62.77990370061738
-106.5 89.5 62.5714551089753
-45.5 7.5 61.593737729562
-51.5 84.5 62.342670979706966
-51.5 83.5 59.3944312264845
-146.5 -44.5 62.59036427042435
-149.5 89.5 59.829514423738765
165.5 -59.5 67.03544712534604
49.5 -44.5 64.49276531724641
-175.5 -53.5 63.248581001768926
-1.5 1.5 62.40380697244801
-158.5 -46.5 62.39037391332627
-29.5 -50.5 61.23320263795606
-1.5 -39.5 63.13495121778297
-157.5 -72.5 60.891046425037615
-6.5 -62.5 63.0927842002131
56.5 -52.5 62.214371188593965
23.5 -58.5 61.92896865514357
138.5 -62.5 62.91882720919158
56.5 -19.5 61.20692292606516
15.5 -46.5 62.827468157438695
75.5 2.5 61.12074139778356
-145.5 -34.5 62.10325151721703
87.5 1.5 63.19602200758673
-26.5 -20.5 62.4543586491343
24.5 -47.5 63.289687121090466
55.5 -50.5 62.557295061422025
-33.5 -36.5 62.38608075099575
-144.5 -9.5 62.533424224915755
-144.5 5.5 62.37653675626537
169.5 -58.5 65.67489294544531
2.5 -59.5 62.66170908110906
-142.5 17.5 62.7294811020737
-31.5 -65.5 63.00850036222853
160.5 -40.5 62.20660708037382
-165.5 89.5 61.775594335182824
-144.5 -3.5 62.32968007088936
-152.5 -45.5 62.29700513099611
53.5 -46.5 63.585270039673425
-25.5 -22.5 63.841734875163354
-168.5 -48.5 62.59061442654016
60.5 20.5 60.461428735014614
-2.5 -11.5 62.436504630586214
-109.5 -64.5 62.44171056572872
-146.5 -31.5 62.08985007161962
-162.5 -47.5 61.39662314470295
1.5 -25.5 62.428954439208944
-2.5 -34.5 61.992492477265685
-146.5 36.5 61.8098012237411
-173.5 -52.5 63.0105787630653
90.5 5.5 60.86369078774439
-23.5 54.5 62.711686439789354
-142.5 15.5 63.95811202077525
-150.5 89.5 59.829514423738765
53.5 -16.5 63.23342272742828
175.5 80.5 61.148460328598105
-82.5 -59.5 63.07029963080212
-144.5 -43.5 62.59036427042435
-56.5 25.5 60.254517522609305
178.5 -55.5 63.062610092100094
-46.5 35.5 62.55292918152518
-178.5 -54.5 63.127195525751105
160.5 -39.5 61.66628618069691
23.5 -47.5 63.027781549714
-162.5 48.5 62.22343330506332
96.5 -14.5 60.12052907335617
-28.5 -53.5 68.10684389874712
-26.5 -21.5 62.882638534420174
62.5 19.5 59.879771924870674
-21.5 5.5 61.22262272583105
46.5 -45.5 62.12112027312588
-33.5 -46.5 62.3678115051894
177.5 81.5 62.05350985707489
-161.5 46.5 61.773990761674476
-145.5 0.5 61.53623637302138
-85.5 -59.5 62.64942491872421
88.5 -24.5 61.68104246594038
164.5 -59.5 66.39338830181664
175.5 -56.5 63.224914408443965
-0.5 -14.5 62.04437833700136
37.5 -49.5 63.04803845051281
-172.5 -68.5 63.89057190412998
171.5 78.5 62.704357996579574
-123.5 -66.5 62.47443075005968
13.5 -42.5 61.84738875277778
137.5 -62.5 62.91882720919158
-116.5 -65.5 61.81984578259455
-134.5 -70.5 61.192586498044875
173.5 87.5 61.589951962425374
-151.5 89.5 59.959080120795676
-1.5 -7.5 62.06347639883035
-142.5 16.5 63.244475441944715
-156.5 -72.5 60.891046425037615
81.5 -6.5 62.580279004269904
-152.5 89.5 59.959080120795676
-42.5 51.5 63.74290853626751
-34.5 -42.5 61.79664786886045
67.5 17.5 60.58298494936026
-146.5 -36.5 60.63955047978808
173.5 79.5 61.00606591063795
100.5 -60.5 62.085722116860985
-171.5 -49.5 61.46825916236702
-151.5 24.5 62.44156493643871
152.5 -38.5 61.25369250237646
-39.5 48.5 62.91639151663964
-51.5 60.5 62.42906609983188
166.5 86.5 61.134343398244795
-27.5 -29.5 63.30697181834441
-143.5 20.5 62.39683917884543
-32.5 -35.5 62.60355745124998
-143.5 22.5 62.91055862638589
-55.5 56.5 59.34647818554572
-31.5 -34.5 61.87428302576418
-127.5 -69.5 60.24978818275372
-143.5 21.5 62.39683917884543
136.5 -62.5 62.03853707970623
-174.5 -50.5 60.79837309155677
-112.5 -65.5 61.27569840609749
-165.5 -48.5 62.59061442654016
-15.5 -63.5 63.44068648865031
-0.5 0.5 62.628998604498626
157.5 -34.5 63.01938366119712
0.5 -16.5 61.486043524449016
-1.5 -36.5 62.846250951964805
-118.5 -65.5 62.934611863671044
1.5 -27.5 61.638307953058
-160.5 -46.5 62.488716897318874
48.5 -44.5 63.46489163883231
162.5 -44.5 63.07855524319059
152.5 -39.5 61.363517618501035
-51.5 55.5 61.050680294305785
172.5 -57.5 63.89645967699688
53.5 -47.5 62.467022683806825
-26.5 -23.5 64.98752019327704
-28.5 8.5 62.55277012931869
-143.5 -71.5 62.73011661996665
-148.5 -18.5 59.308539899841946
-0.5 -2.5 62.07637750731638
-152.5 28.5 62.588055606370354
-160.5 43.5 62.16363046584266
-147.5 -44.5 62.62067738622574
153.5 -41.5 63.36630220722294
-27.5 -28.5 63.41547065287289
51.5 -22.5 61.75074422732417
-52.5 84.5 61.95282136116458
83.5 -55.5 62.29565960666104
51.5 -45.5 64.0075313312644
-90.5 -65.5 61.14280836393067
1.5 -24.5 62.663891943736964
-52.5 83.5 59.3944312264845
-163.5 48.5 62.06474939902451
135.5 -62.5 63.488788899101365
52.5 -25.5 63.071612585167394
38.5 -38.5 63.60054449548993
-153.5 -45.5 62.102846054312124
-143.5 19.5 62.17030188163659
86.5 0.5 61.96376554262832
-30.5 -1.5 66.19328350856604
-144.5 -42.5 62.360834927018274
-155.5 -72.5 60.891046425037615
-87.5 -60.5 61.68011753972255
-146.5 35.5 61.8098012237411
-28.5 -14.5 62.9673121819321
44.5 -35.5 62.23263839026495
-0.5 -40.5 61.68942059863341
-105.5 -63.5 62.44171056572872
-90.5 -68.5 61.332514463920496
-16.5 48.5 62.47874637874077
97.5 -14.5 63.44904480212563
163.5 -58.5 63.52393891233239
-54.5 28.5 62.27575710436779
36.5 -50.5 66.84316160220652
-148.5 37.5 61.30787649616118
163.5 -59.5 67.43483781299072
-176.5 -53.5 63.530304234092156
47.5 -44.5 61.90021748712473
128.5 23.5 63.66401190285972
178.5 45.5 60.45748151260134
-145.5 -43.5 62.70283010996116
0.5 -42.5 61.42788719681366
42.5 -48.5 62.5983285433058
68.5 -48.5 65.8172272268484
-48.5 59.5 64.92954839373917
153.5 -48.5 63.859552922462605
-164.5 48.5 61.880265870490156
-172.5 -49.5 61.45959350186145
69.5 16.5 60.390081528461096
74.5 -3.5 63.101808266831625
-33.5 -40.5 62.2186547300412
82.5 -7.5 62.350817595789664
-2.5 -10.5 62.31098252912406
55.5 -52.5 61.922297686387466
-72.5 76.5 61.72697808307211
2.5 -44.5 62.55300659250055
-56.5 22.5 62.416580477584375
-103.5 -63.5 61.36238764091203
-145.5 -6.5 62.37115599381601
91.5 6.5 65.35691732415289
-148.5 -25.5 61.61405817208933
52.5 -27.5 62.95211102551203
72.5 11.5 61.130294644296036
163.5 -44.5 62.33666980234976
-127.5 -67.5 61.763918553587985
-27.5 -24.5 64.28659677361036
-145.5 13.5 62.3494043748273
-147.5 -22.5 61.80392728020345
-163.5 -47.5 61.47735575039465
74.5 8.5 62.61174923506415
-24.5 -4.5 63.69683486964614
-29.5 -27.5 61.53777424094331
131.5 7.5 67.54886146675348
99.5 -4.5 62.501985301240886
-28.5 -32.5 61.72093127876227
-151.5 -44.5 62.376870869935026
-179.5 -54.5 63.137812030422154
38.5 -49.5 62.66402226307442
-145.5 -39.5 60.51623596889333
1.5 -26.5 62.525480129245445
-0.5 -23.5 63.09674678399249
58.5 -52.5 62.251881106854974
-151.5 23.5 63.45323995502066
-165.5 48.5 61.847225624222126
153.5 -47.5 63.15007899789215
177.5 -55.5 63.062610092100094
1.5 -43.5 61.87536952621128
-144.5 -12.5 63.67049468248681
168.5 -58.5 66.13870779119631
-34.5 -43.5 62.01138090223727
178.5 81.5 62.849416341451594
-148.5 -26.5 62.131126604741276
56.5 -15.5 62.7041523087824
75.5 -3.5 64.20981136225416
65.5 18.5 61.31170840553746
-122.5 -66.5 62.31247134003689
-174.5 -52.5 63.0105787630653
64.5 -48.5 65.28203716989155
-174.5 46.5 61.91833632408171
-147.5 -24.5 61.6507756061704
-156.5 -45.5 61.36463784749679
-127.5 -68.5 61.2655749138203
-56.5 64.5 60.7796301482592
-176.5 46.5 62.739266493603694
94.5 -17.5 61.73477340204772
-173.5 46.5 61.45200935986223
-161.5 45.5 61.78410298514222
-162.5 40.5 61.65793535102396
-117.5 -65.5 63.30251359310092
-175.5 46.5 61.96034702227991
-57.5 17.5 60.794775821077394
134.5 -62.5 62.03853707970623
-0.5 -0.5 62.1394076268201
-145.5 12.5 62.436413615653585
90.5 -21.5 61.40783080999278
-152.5 27.5 62.4175677632331
-133.5 -70.5 61.75801052148017
-177.5 -70.5 62.024461752011284
1.5 -28.5 61.28569157575186
-166.5 48.5 61.267777724270424
-22.5 -64.5 62.7378004801105
-173.5 -49.5 61.226483023452346
-171.5 48.5 61.86340291168071
-100.5 -62.5 59.92612767824938
-35.5 19.5 61.84958477924263
-104.5 -63.5 61.059477016900985
19.5 -59.5 60.21251160720528
-149.5 38.5 61.464754015234604
-108.5 -64.5 62.57974726658141
-154.5 -72.5 60.891046425037615
160.5 -42.5 62.37561709016757
16.5 -44.5 62.534943943388456
-27.5 -16.5 62.77757724128501
-160.5 42.5 62.12047564128979
-3.5 -61.5 62.639528016004185
14.5 -58.5 61.78943571371325
-21.5 52.5 61.501363854840996
-167.5 48.5 62.164958212322624
-1.5 -6.5 61.56719752275947
51.5 -28.5 61.64074580642623
76.5 -3.5 63.796528960169496
0.5 -21.5 63.14810178072182
20.5 -59.5 60.29068977745353
52.5 -19.5 62.66488762004753
46.5 -33.5 61.84800369638352
156.5 -32.5 60.276039005566766
31.5 -45.5 68.03819938488766
-51.5 11.5 61.87266254786862
-148.5 -44.5 62.62067738622574
-146.5 34.5 62.49392688502523
52.5 -46.5 62.56314013642263
-169.5 -48.5 61.29730835134377
-161.5 38.5 60.02479462199938
-168.5 48.5 61.38501679530146
-0.5 -4.5 61.800411023724635
-70.5 76.5 61.178609883166594
-28.5 -15.5 62.427796855418
161.5 -43.5 62.98888588204936
-24.5 -3.5 68.94518342154944
-169.5 48.5 61.178209970679085
-145.5 11.5 62.13845582408062
-158.5 38.5 59.64995827033026
-170.5 48.5 61.60554689071584
90.5 -29.5 62.08936610247782
56.5 -10.5 61.94634373528333
-146.5 33.5 62.18063526029745
-53.5 84.5 58.80862644555219
-142.5 -71.5 61.340198753790546
24.5 -58.5 60.38192470631909
163.5 85.5 60.59379390416225
-154.5 89.5 59.61704827782949
99.5 -5.5 60.28618475503261
-53.5 83.5 59.12479795098632
-102.5 -63.5 61.223973066013244
13.5 -43.5 62.318507739128144
13.5 -46.5 62.774428030749725
54.5 -50.5 62.557295061422025
-17.5 2.5 69.7918673066919
-152.5 -44.5 62.22370998184159
-27.5 -17.5 62.43153553172627
-45.5 36.5 62.71929075146145
-30.5 -65.5 62.944481182577526
-145.5 -0.5 61.53762708998922
77.5 -3.5 64.4173458002215
-33.5 -47.5 62.511009364847
39.5 -49.5 62.59642526706271
-154.5 -45.5 61.48048431566891
93.5 -18.5 62.09985491201591
-146.5 -43.5 62.70283010996116
-34.5 -44.5 62.385737915785676
12.5 -49.5 70.17838266156939
-93.5 -61.5 61.37093426293127
136.5 23.5 69.61119036194647
-162.5 47.5 61.577011073276836
-28.5 -54.5 63.21676435169716
-169.5 -69.5 62.15982438304311
151.5 -35.5 60.42846148323923
-126.5 -67.5 61.60960099633608
-174.5 -49.5 60.707356719132534
53.5 -48.5 62.355648590234665
-53.5 30.5 61.27691594086562
79.5 -4.5 63.80653055453223
-145.5 10.5 62.34427535433906
-161.5 -46.5 61.19620643528301
-147.5 -29.5 61.91936994247443
-144.5 -10.5 62.32261540138634
95.5 -17.5 61.40900284979286
-111.5 -65.5 61.53733121687434
-28.5 -31.5 61.46703747040589
133.5 -62.5 61.52624819081734
-177.5 -53.5 63.09675726017194
-157.5 -45.5 61.494487053845994
-29.5 -51.5 60.61566528788181
115.5 -37.5 64.42187384859908
174.5 79.5 62.66402501332135
174.5 -56.5 63.74520311146464
-1.5 -32.5 61.67283672625555
-150.5 -44.5 62.16606204640561
51.5 5.5 61.38594963822496
123.5 -62.5 61.590713434871425
179.5 81.5 62.33712745256271
89.5 -24.5 62.09958437628308
80.5 -5.5 63.61975954958769
-147.5 -23.5 61.655958255686926
98.5 -7.5 62.21974266136712
171.5 -57.5 63.89645967699688
100.5 -31.5 58.51157266034687
-143.5 18.5 61.881347857385705
-152.5 26.5 61.93445121774172
-85.5 -61.5 63.31743118269285
-155.5 -45.5 61.469631947264354
34.5 -41.5 63.709358083789105
-26.5 33.5 62.62366578367441
-99.5 -62.5 60.126448667878606
-153.5 -72.5 60.891046425037615
-59.5 58.5 56.5577426562237
-146.5 32.5 63.510199830085455
172.5 78.5 62.920261786397866
-121.5 -66.5 62.39493021549334
-71.5 76.5 60.40975018710696
179.5 -54.5 63.137812030422154
63.5 -48.5 65.28203716989155
-36.5 -0.5 61.93080255115226
-19.5 38.5 71.35495297720995
-145.5 9.5 62.4475827368894
85.5 -1.5 65.44332919008686
-164.5 -47.5 61.215155627608354
-0.5 -13.5 62.37964067249773
-145.5 4.5 61.784437203865856
-146.5 3.5 60.60932763536208
91.5 -19.5 62.49026971881737
50.5 -45.5 63.899189997931074
-161.5 44.5 61.78410298514222
167.5 -58.5 63.661693069903414
132.5 -62.5 63.01139311083281
5.5 -58.5 62.61571739589847
174.5 83.5 61.53035115119843
71.5 13.5 61.61556204014782
16.5 -46.5 62.83893804315601
-146.5 -34.5 60.64381004203525
-175.5 -49.5 59.98798345829081
-56.5 15.5 61.15859452959274
-149.5 -44.5 62.50821154668893
55.5 -8.5 62.819225956270685
83.5 -7.5 62.1301282859467
-175.5 -52.5 61.35594983268126
0.5 -15.5 61.012802086687806
57.5 -19.5 60.924832583695455
26.5 -47.5 63.11760337475093
-34.5 24.5 63.04119168846261
7.5 -48.5 61.67273828739002
-35.5 23.5 63.069636699728605
152.5 -40.5 63.202729830878745
176.5 -55.5 63.062610092100094
164.5 -44.5 63.2077524343681
-145.5 8.5 62.177727482988885
-35.5 13.5 62.970567141801396
-27.5 -18.5 62.30988676572254
43.5 -48.5 62.397261774977025
53.5 -49.5 62.693661359521776
130.5 22.5 64.43652382538048
-55.5 62.5 61.04212491603822
29.5 -46.5 69.22647906286767
-162.5 39.5 61.57702505388156
-34.5 -37.5 62.38608075099575
-25.5 -5.5 61.069853418845135
-143.5 17.5 62.16036156827268
-153.5 -44.5 61.77194523842432
-164.5 89.5 61.02806846236587
54.5 -52.5 61.867044523074966
-146.5 -32.5 60.78184674288793
-92.5 -61.5 61.2519374249866
174.5 87.5 62.748529467444534
160.5 -38.5 62.03331049301255
-16.5 2.5 68.42833304610245
131.5 -62.5 62.66828518632718
-55.5 14.5 60.166749500256955
-148.5 -19.5 60.81294039219344
-132.5 -70.5 60.97049516366866
65.5 -48.5 66.75776784179537
-146.5 31.5 63.63331909690859
-24.5 35.5 68.92434830927695
1.5 -19.5 62.82615061788367
-35.5 18.5 61.53441157024386
-34.5 -45.5 62.56213726817139
51.5 -24.5 62.7404661815854
-34.5 -41.5 61.619280881818675
-34.5 -38.5 62.37471580061051
-141.5 -71.5 61.57451183155899
-1.5 -5.5 61.695416923957076
16.5 -43.5 62.393709677450204
52.5 -13.5 63.51001551829595
130.5 -62.5 61.96567703617793
73.5 -50.5 66.0955209836866
26.5 -57.5 60.416554975380635
-147.5 -43.5 62.48226281132696
-30.5 -33.5 61.20143101443967
-122.5 89.5 60.59950866236518
84.5 -6.5 62.54513609322478
-125.5 -67.5 61.727957759211016
-54.5 84.5 60.02896279970667
-145.5 7.5 62.177727482988885
-44.5 6.5 60.399839457231586
-33.5 26.5 63.1350554334946
-0.5 -60.5 62.684924875102496
-28.5 -30.5 61.907388520437706
98.5 -30.5 59.163921161746764
-123.5 89.5 60.59950866236518
129.5 -62.5 62.05817959262495
-152.5 25.5 62.58114839267655
78.5 -3.5 63.93893721112841
-90.5 -61.5 61.898612067593646
75.5 0.5 61.21940804555456
92.5 -19.5 62.09985491201591
56.5 -53.5 61.24034723206881
-107.5 -64.5 62.49759454284599
-29.5 31.5 61.61880212626741
-54.5 83.5 59.34131140854325
-152.5 -72.5 60.891046425037615
13.5 -44.5 62.76128065743869
-57.5 18.5 61.33010436882753
-143.5 16.5 63.215558414527685
63.5 19.5 59.65146042386989
-30.5 30.5 61.52855511702238
3.5 -59.5 61.47002202032244
37.5 -38.5 63.85524651046469
-0.5 -37.5 63.05230731699294
-32.5 -48.5 61.49179583252378
-175.5 -73.5 65.49170987745025
16.5 -45.5 62.68525370995777
-143.5 15.5 62.87662835330473
53.5 -50.5 62.69822140813597
-54.5 13.5 60.010576314432384
-176.5 -73.5 66.6360033537258
-178.5 -53.5 62.87646778648773
128.5 -62.5 61.644795833299625
-120.5 -66.5 62.65881920131667
-145.5 6.5 61.62950147716632
27.5 -47.5 64.28619398772119
56.5 -18.5 62.13235300706342
-162.5 46.5 61.76046004774224
-89.5 -61.5 62.08934171884824
18.5 -59.5 60.825318836616425
-174.5 -51.5 61.19332080349949
-29.5 9.5 62.220418408345466
-32.5 28.5 61.842014317367926
-34.5 -39.5 62.071805176599476
61.5 20.5 60.746759580613464
-20.5 52.5 62.448566261161105
1.5 -17.5 61.67736897448959
-1.5 -35.5 61.754722067429036
-172.5 47.5 61.50406658401462
-145.5 -7.5 61.39185513496282
-57.5 19.5 59.99133304529656
-158.5 -45.5 61.56488386074748
-144.5 22.5 62.91055862638589
-179.5 89.5 62.54599776888781
-41.5 50.5 63.85344134594937
-145.5 -42.5 62.308880953939685
-18.5 41.5 62.45102154608695
66.5 18.5 60.569968140516764
-179.5 45.5 61.32923905757453
153.5 -44.5 61.52979181540286
179.5 45.5 60.37877542049924
-161.5 43.5 62.081477742107246
178.5 -54.5 62.76991030099227
-174.5 -73.5 63.9057734702377
-144.5 20.5 62.08733543177489
150.5 -47.5 64.12650011046046
-170.5 -48.5 61.46905477552754
-39.5 43.5 61.855091837355104
57.5 -7.5 61.74575463015786
-91.5 -61.5 61.39595077612145
0.5 -22.5 63.467397489947054
-5.5 -62.5 62.93034395394507
-46.5 -64.5 62.0348579045073
-178.5 45.5 61.642773672959144
-162.5 -46.5 60.923330008500315
15.5 -41.5 62.01400473792259
55.5 -7.5 62.819225956270685
-154.5 -44.5 60.11672309913391
-147.5 36.5 61.405641501069155
-110.5 -65.5 61.40328710410486
-169.5 89.5 61.51174066246488
67.5 -47.5 64.2143603210156
-145.5 5.5 61.62386527870206
127.5 -62.5 61.42334110184183
51.5 -6.5 62.410469774800305
-144.5 21.5 62.39683917884543
-169.5 -70.5 60.9536312289505
-12.5 1.5 67.12289576974854
-149.5 37.5 59.35415730956708
-145.5 -1.5 60.67840064849028
49.5 -45.5 63.449194046514066
170.5 -57.5 61.85033485038883
88.5 -25.5 61.256396423839995
-165.5 -47.5 61.06249525643648
-29.5 -65.5 62.39819169251582
58.5 -18.5 61.97548461037793
96.5 -15.5 60.624485368733666
-151.5 22.5 62.06906374293119
22.5 -46.5 62.64650195466762
74.5 -2.5 61.857054767184636
13.5 -48.5 62.67418392621087
131.5 22.5 64.64623411734618
13.5 -47.5 62.51706199725021
173.5 -56.5 63.579313797363966
16.5 -42.5 62.199550600766216
-25.5 34.5 65.04801578453136
166.5 -58.5 62.98082867995091
-34.5 -46.5 62.738462211143975
-54.5 55.5 58.95214485865513
158.5 -36.5 61.99167773691017
51.5 -46.5 62.33655080938901
-176.5 -52.5 61.04066043232761
34.5 -51.5 66.97947094900391
-124.5 -67.5 61.727957759211016
-56.5 23.5 60.955636073330226
-148.5 -43.5 62.232323433591276
-144.5 19.5 60.926293572441026
-21.5 -64.5 62.07955674771076
0.5 -41.5 60.911434732999666
-28.5 -25.5 61.76213824817083
89.5 4.5 60.22762123997886
-151.5 -72.5 60.80550796349916
93.5 -28.5 60.21322840331187
52.5 -47.5 63.73536045876235
126.5 -62.5 61.19197659061765
-173.5 -73.5 63.0069692325214
54.5 -51.5 62.364929412268026
-177.5 45.5 61.56829147203552
-25.5 -6.5 61.405670457169705
92.5 -28.5 60.25310183964902
-140.5 -71.5 61.42185146038712
-28.5 -13.5 61.19997337404779
-18.5 51.5 62.57084110025062
90.5 -22.5 61.19447011606125
-149.5 -14.5 61.33618915411966
-21.5 6.5 61.44362775319519
152.5 -48.5 63.04220595979004
124.5 -62.5 60.94328215577116
153.5 -43.5 62.054645891878124
75.5 3.5 61.330816772710044
12.5 -58.5 61.154456397498365
-27.5 32.5 61.25457950552575
-0.5 -39.5 62.87223516480176
-0.5 -12.5 62.33144684234779
-146.5 2.5 60.308104185031404
-37.5 0.5 62.05643593681858
88.5 2.5 59.73642144868056
-32.5 -34.5 62.17973462130821
164.5 -58.5 63.46483475643017
3.5 -44.5 61.699432117592394
-14.5 -63.5 61.55825370470673
41.5 -36.5 62.85190688285743
91.5 7.5 65.65760198176153
-23.5 7.5 61.44362775319519
-0.5 -1.5 62.00322381927676
-0.5 -38.5 63.29203133327415
-35.5 16.5 61.11827384777714
-146.5 -42.5 62.171407415740795
167.5 53.5 57.308228862944695
-35.5 17.5 61.16227923926021
-162.5 41.5 60.08345306910282
-51.5 32.5 61.24143221895384
-8.5 1.5 63.30341583466016
55.5 -53.5 60.53196919361531
-40.5 40.5 62.31618316195033
-51.5 10.5 59.698586822649574
-119.5 -66.5 61.04168092435072
59.5 -15.5 61.63171686286793
11.5 -58.5 61.577073773097
125.5 -62.5 61.270680730669945
-144.5 -11.5 62.48263083863978
-1.5 -9.5 61.772730943903326
-131.5 -70.5 59.213664957702065
-179.5 -53.5 62.72885553074206
-148.5 -20.5 62.546428007332764
-161.5 42.5 61.31130491321133
-147.5 35.5 60.1684261781962
-27.5 -19.5 61.43834074732338
-29.5 -32.5 60.76350251670988
-42.5 3.5 60.31956679756194
17.5 -46.5 62.29671558671002
-29.5 -52.5 65.61667251682147
-162.5 45.5 61.10008552031971
173.5 78.5 62.087689776753926
-55.5 27.5 60.34936051313584
90.5 6.5 60.125404798666175
-33.5 -35.5 61.19651879942833
-30.5 -49.5 61.32054665479337
-150.5 38.5 61.874696648755446
-84.5 -59.5 62.5373369532335
-152.5 24.5 62.18812334177625
82.5 -6.5 62.02842768554709
-172.5 -73.5 62.21740378554787
75.5 5.5 60.60051529384275
70.5 15.5 60.376145705531265
177.5 44.5 60.850745614571096
-153.5 28.5 60.87820753267409
-106.5 -64.5 62.363550430076515
13.5 -45.5 63.161850563190875
81.5 -5.5 62.49915562764653
-150.5 22.5 60.622391794813645
99.5 -6.5 63.09471989669191
-55.5 84.5 58.36888424271133
152.5 -46.5 62.069242195227254
-162.5 38.5 59.8721342508275
-146.5 -33.5 60.17417990690937
-34.5 22.5 62.042760487286
-159.5 -45.5 61.53333634914945
-40.5 49.5 62.42784957915059
52.5 -26.5 60.804133205895795
45.5 -47.5 62.6726338783881
48.5 -45.5 63.20387455264864
73.5 10.5 62.34364165707819
-146.5 13.5 60.47557304843173
57.5 -16.5 62.75601042637349
56.5 -7.5 61.960587321327715
21.5 -46.5 63.04771826357126
-57.5 57.5 57.13654605821226
97.5 -15.5 60.07275548301217
153.5 -42.5 61.67215436110685
-155.5 -44.5 59.56982859760066
23.5 -46.5 61.962553087623256
-152.5 -43.5 60.50628471331628
-147.5 -30.5 60.56811796182991
52.5 -48.5 62.50440555896289
-17.5 50.5 62.555555575840124
51.5 -25.5 61.27600638126298
-42.5 2.5 59.93563687697159
-145.5 14.5 62.15581515866711
-153.5 -43.5 59.99113872670529
-163.5 47.5 61.520325534791745
-26.5 -2.5 68.64590352839646
87.5 2.5 60.84366795753457
-57.5 20.5 60.94783834079323
0.5 -3.5 61.58655617944308
-160.5 -45.5 60.03127480403519
-34.5 -36.5 60.93213387541618
-123.5 -67.5 61.642622727508105
43.5 -35.5 61.89906230918102
-27.5 -12.5 61.2634305362119
-144.5 18.5 60.546110595778316
175.5 -55.5 61.55253213840038
159.5 -37.5 62.281809018695874
96.5 -29.5 59.2520523618531
57.5 -13.5 62.412627583997725
40.5 -36.5 62.96851728640121
-149.5 -43.5 62.210745160358584
-149.5 30.5 62.006254400696065
-145.5 -40.5 60.32782170112577
157.5 -33.5 61.111277642250464
-126.5 -69.5 59.67842533031778
-150.5 -72.5 60.30680996171856
177.5 -54.5 61.661563817514164
-146.5 12.5 60.5358325269316
-55.5 83.5 58.617338443997625
-171.5 -73.5 63.93275381535958
-109.5 -65.5 60.6776983800819
11.5 -49.5 63.8821169021501
-158.5 89.5 59.71316754278893
-163.5 -46.5 60.640328826085764
-156.5 89.5 59.24473276018024
-26.5 -22.5 61.3733555463733
-0.5 -36.5 62.90956987542863
-1.5 -34.5 61.83817492001378
-44.5 59.5 72.3354848953561
-149.5 -15.5 62.35300083345373
94.5 -18.5 61.59378471943178
10.5 -58.5 60.890071473486195
-27.5 -11.5 61.60221340523857
13.5 -58.5 61.02406943934497
-147.5 34.5 60.12521945314117
-1.5 -11.5 62.293358297601756
-177.5 -52.5 60.622631277546226
169.5 -57.5 61.52957259949656
16.5 -41.5 60.20472926153597
-159.5 89.5 60.187684315762624
-56.5 63.5 59.633400190014584
10.5 -49.5 63.50953929886955
-147.5 -42.5 60.1266093785453
-0.5 1.5 62.49152506629974
-166.5 -47.5 60.88026305615973
165.5 -58.5 62.16932401737666
-175.5 -50.5 59.078333626878596
-34.5 -47.5 60.45352824873153
162.5 -43.5 62.85590975736397
35.5 -51.5 67.15438152882827
-176.5 -49.5 59.84740255504439
-34.5 -40.5 60.038358006327535
-153.5 27.5 60.48560320746432
12.5 -42.5 61.165782429864436
-146.5 11.5 60.62557343552725
47.5 -45.5 62.36144028673988
-118.5 -66.5 61.20323425858624
-139.5 -71.5 60.923153458606514
-157.5 89.5 59.24473276018024
-27.5 -20.5 59.4028423786423
161.5 -42.5 62.9216131960972
18.5 -46.5 63.07155204825791
-44.5 37.5 60.855818158301005
-163.5 40.5 59.98317409410128
-25.5 -7.5 61.27248256040232
0.5 -40.5 61.070946824216996
56.5 -9.5 62.904560987973575
-175.5 -51.5 59.93143047996754
-152.5 23.5 62.177039940706
-171.5 47.5 60.835700596307554
152.5 -41.5 61.578096690645005
-146.5 -37.5 59.64621740449603
21.5 -59.5 60.482191015610006
-30.5 10.5 62.81474543404879
-147.5 33.5 60.63169459709752
-35.5 -42.5 59.16170702390949
-44.5 5.5 58.35263374424761
75.5 6.5 59.90025769009202
-53.5 12.5 60.117492182100285
-162.5 44.5 60.85037543659444
-171.5 -48.5 60.809437728268314
93.5 -19.5 59.599746667958556
-170.5 -73.5 62.34526782154093
120.5 -37.5 63.1273484929963
-27.5 -10.5 61.54463492221823
-27.5 -9.5 61.92019145167424
44.5 -48.5 61.66194870826485
75.5 -2.5 63.50835751579354
-144.5 17.5 60.514853830089386
-28.5 -65.5 62.13380676850365
172.5 -56.5 61.96173051429267
-161.5 -45.5 59.89323810318249
-145.5 -2.5 60.191051243603816
-54.5 29.5 59.95628466211672
151.5 -36.5 59.555002593351226
32.5 -52.5 66.74189343730642
54.5 -53.5 60.530033197181
179.5 -53.5 60.93989814057288
-34.5 21.5 61.24096491567983
51.5 3.5 59.59533326972558
51.5 -8.5 60.85920276642075
-35.5 14.5 62.809533603287484
-86.5 -60.5 61.974414381402724
-168.5 -47.5 60.881058669320254
95.5 -18.5 58.659544785019925
72.5 12.5 61.617269850907604
-154.5 -43.5 59.71649578951437
-148.5 -27.5 60.988609261115016
-165.5 47.5 60.835700596307554
-146.5 10.5 60.66758413372545
-164.5 47.5 60.835700596307554
-28.5 -28.5 60.53621443862094
-145.5 -41.5 60.32782170112577
-17.5 43.5 61.82196901972392
161.5 -40.5 62.154653107295225
50.5 -46.5 61.01371502709978
-147.5 32.5 60.88596188831573
-148.5 -21.5 61.89003677138839
-18.5 3.5 62.37191926075397
17.5 -59.5 60.40827354143239
-101.5 -63.5 59.88645778629104
76.5 -2.5 64.09138037318375
-145.5 -8.5 61.98317962379423
-27.5 -21.5 60.1427839695079
-15.5 2.5 68.38257890294915
20.5 -46.5 62.786249663777255
19.5 -46.5 62.70090134230333
63.5 -49.5 62.858501867771864
-157.5 38.5 59.630644428119496
-55.5 64.5 59.925304462883034
64.5 19.5 60.144337066356854
-122.5 -67.5 59.827384633052525
-35.5 -43.5 59.63580643936912
-130.5 -70.5 58.94131034510614
75.5 4.5 60.23606307971775
-166.5 47.5 60.77658808214209
-144.5 16.5 60.78519142717089
-150.5 -43.5 61.83439033499845
-167.5 47.5 60.892386134792645
-148.5 -24.5 61.38810335250243
86.5 1.5 61.54672024744429
1.5 -42.5 60.80061833936852
85.5 -0.5 64.7326533743389
-168.5 47.5 60.892386134792645
2.5 -24.5 61.33559179966358
64.5 -49.5 62.39534140767121
40.5 -49.5 62.29066754609358
77.5 -2.5 64.38489465793693
51.5 -20.5 61.71132065145815
-1.5 -33.5 61.40250824140707
-43.5 4.5 60.550793442628155
-170.5 47.5 61.16851213476909
-146.5 1.5 60.00872427689226
-169.5 -73.5 62.04780829208883
-29.5 -31.5 60.96549172473235
-164.5 -46.5 60.79811033242432
-0.5 -8.5 60.22923956146174
98.5 -8.5 62.443771491621504
-169.5 47.5 61.22519767325418
-35.5 15.5 61.53009281796761
-146.5 9.5 60.44041075210309
-144.5 15.5 61.00138826367579
51.5 -47.5 62.3458131728519
-35.5 -44.5 60.01390025073918
57.5 -53.5 60.18940609935491
-113.5 -66.5 60.70429899879925
-20.5 -64.5 61.86583159996319
-153.5 26.5 60.13956149790557
17.5 -44.5 61.30023082969203
-105.5 -64.5 60.86718221007578
-147.5 -13.5 60.60486605870053
-28.5 -29.5 60.29399144823537
80.5 -4.5 63.652886323763
-175.5 -48.5 60.136667193179264
-151.5 -43.5 60.50628471331628
-178.5 89.5 61.371245177001576
-174.5 -48.5 60.598628904738895
0.5 -14.5 61.012802086687806
-157.5 -44.5 58.87930744564669
-169.5 -47.5 61.05200948034351
-56.5 56.5 58.21200800324556
138.5 7.5 69.5344836171352
-148.5 -42.5 59.72867627995248
79.5 -3.5 63.652886323763
-52.5 31.5 61.28728857986912
-176.5 -48.5 59.326345479181384
-147.5 31.5 61.88526481857603
-152.5 22.5 61.555832004736885
-167.5 -47.5 60.88026305615973
-156.5 -44.5 59.527817899402464
-50.5 33.5 60.88640437282003
-27.5 -23.5 61.6254158226089
-126.5 -68.5 61.2655749138203
-178.5 -52.5 60.58344138699896
-83.5 -59.5 62.64980279277031
53.5 -51.5 61.723990389659406
62.5 -49.5 61.988895934559814
103.5 -62.5 60.3442060937377
-176.5 45.5 61.016799728014
-117.5 -66.5 60.70429899879925
-162.5 43.5 60.86965235967136
-146.5 8.5 60.264464051595475
176.5 -54.5 61.332147759977985
-8.5 -63.5 61.79222835145511
178.5 44.5 59.73598947753703
-158.5 -44.5 59.527817899402464
-174.5 45.5 61.33033434339862
158.5 -35.5 61.890115075438096
-149.5 -72.5 60.30680996171856
-175.5 45.5 61.33033434339862
-168.5 -73.5 60.809294484095716
-52.5 55.5 60.61167990937327
-50.5 9.5 59.47411431157274
-112.5 -66.5 61.002021936005775
-163.5 46.5 60.85497751938448
-15.5 46.5 61.641155164988874
6.5 -58.5 60.698592440081796
168.5 -57.5 62.615222926557465
-31.5 -33.5 60.547518965486844
-57.5 21.5 60.69447036757967
-155.5 -43.5 59.56164110309717
48.5 -30.5 60.11385815282124
-35.5 -45.5 60.582070356285776
46.5 -46.5 62.44454566800131
-149.5 22.5 59.50661943542224
-163.5 39.5 59.918275140807246
-108.5 -65.5 60.40503629614543
-88.5 -61.5 62.29694302758903
2.5 -43.5 60.56663154687381
91.5 -20.5 61.789547696966736
-83.5 -60.5 62.89952150737099
-145.5 22.5 60.11880978940356
-173.5 45.5 61.02576690031459
52.5 -17.5 61.90786520406288
4.5 -59.5 61.32951192643095
52.5 -50.5 63.087160160364704
-56.5 24.5 60.05907890646052
-29.5 -53.5 65.00399270090858
-18.5 40.5 70.093146242063
62.5 20.5 57.78840965016558
-148.5 -22.5 60.979556474263234
-96.5 -62.5 59.374501287226494
-138.5 -71.5 60.76950922783728
1.5 -16.5 59.35065916556382
-176.5 -51.5 58.92950731852176
-150.5 37.5 59.745572446074995
-56.5 26.5 60.2143803020414
178.5 -53.5 60.87684721676405
83.5 -6.5 59.77798607686275
-2.5 -61.5 61.05351295976125
-146.5 7.5 60.01866743306782
174.5 78.5 62.644746926600064
-153.5 25.5 60.66868145551037
-145.5 20.5 59.89715578659835
17.5 -43.5 61.09746838689865
-29.5 -26.5 61.70640991388119
17.5 -45.5 61.180047954915146
-146.5 -41.5 60.30198173894486
52.5 -49.5 61.86022797700999
66.5 -48.5 62.32637367667881
94.5 -28.5 59.853719072674366
84.5 -5.5 61.2796721648879
88.5 -26.5 60.97304209726546
151.5 -39.5 60.256188606815385
-121.5 -67.5 58.923440071509006
-167.5 -73.5 61.74398477927628
-1.5 -10.5 59.973624945207895
90.5 -23.5 61.49492312979142
0.5 -60.5 61.39836786776036
-34.5 12.5 62.90700880725336
-165.5 -46.5 60.64361427044942
-30.5 -50.5 59.93246659322888
-145.5 21.5 59.77815894865368
174.5 -55.5 61.70561265333022
96.5 -16.5 61.83921985862042
-28.5 -16.5 60.99630674249065
24.5 -46.5 62.00006693672787
-162.5 -45.5 59.92328806632618
-177.5 -48.5 59.170656310651275
0.5 -23.5 62.70392784013314
-148.5 -23.5 60.44517240566408
-111.5 -66.5 60.70372328615661
-52.5 61.5 61.146659272156896
0.5 0.5 60.41368426186218
53.5 -53.5 60.50419323500011
2.5 -25.5 61.051062301565274
-114.5 -66.5 60.54004446171956
-30.5 -27.5 60.50180910789046
-146.5 6.5 59.861681539889794
16.5 -59.5 60.197794289084776
2.5 -18.5 59.72785260314781
-28.5 -24.5 61.58164511005589
-0.5 -7.5 60.10699572258025
-147.5 -31.5 60.32137233719894
91.5 8.5 63.414438749018025
-166.5 -73.5 61.88856661121548
-145.5 -4.5 60.12321709305299
165.5 -44.5 60.268702996999124
-145.5 19.5 60.18347979090849
92.5 -20.5 61.49582182758394
1.5 -20.5 61.07793952850952
-162.5 42.5 60.92869180334674
-165.5 -73.5 61.88856661121548
60.5 21.5 60.06312330062538
-149.5 -42.5 60.17610758805378
151.5 -40.5 61.638131308547315
52.5 -18.5 61.97805087726336
57.5 -18.5 60.9375662352917
171.5 -56.5 61.68315829138474
-129.5 -70.5 58.91547038292524
69.5 -49.5 64.48410088706551
-148.5 36.5 59.230384835698544
-41.5 1.5 59.8250296601058
161.5 -41.5 61.78862336598587
161.5 -39.5 61.84057733906447
-149.5 -16.5 61.833381154654155
57.5 -12.5 62.02502034790542
-13.5 -63.5 61.082273894670486
-35.5 -46.5 60.437959254107355
-125.5 -68.5 59.65258536813687
-4.5 -62.5 61.135579767152365
-56.5 84.5 59.11514455918111
-177.5 89.5 61.62150579143704
-0.5 -31.5 59.95498218212233
-164.5 -73.5 60.77772119699347
-172.5 -48.5 60.628448040812685
-145.5 -3.5 60.222281486992394
-33.5 25.5 60.6491907565609
158.5 -34.5 62.74382964395068
-35.5 -37.5 59.81942916419186
-18.5 4.5 60.92900232779165
-173.5 -48.5 60.8058994209671
15.5 -59.5 60.197794289084776
-47.5 59.5 64.35675195076864
-116.5 -66.5 60.61803947729589
49.5 -46.5 61.2232976860032
52.5 -14.5 62.28489471871375
176.5 44.5 60.834755114442906
113.5 -36.5 63.52856302393201
-146.5 5.5 60.028405677144455
33.5 -42.5 66.77342647438874
55.5 -54.5 60.085996967213525
-156.5 -43.5 59.501977937221554
51.5 -11.5 59.84123166436334
-28.5 -17.5 60.54547825885992
-179.5 -52.5 60.208378026389866
-163.5 -73.5 60.77772119699347
-29.5 -30.5 60.475898937047134
-35.5 -38.5 59.51651854018081
50.5 0.5 59.67095468536571
89.5 -25.5 61.84272880445539
-163.5 45.5 60.87482707251257
-40.5 41.5 61.114406179045574
57.5 -15.5 62.31670412489657
152.5 -45.5 62.11039483243973
-110.5 -66.5 60.70372328615661
-26.5 -8.5 61.31588980643436
-172.5 46.5 60.70387038701351
-147.5 -41.5 59.96672530359491
-151.5 38.5 59.63502420336508
-29.5 -14.5 60.363712432213475
-104.5 -64.5 60.70292767299609
-162.5 -73.5 60.77772119699347
-146.5 -5.5 60.050896001351596
-161.5 -73.5 59.987041331538975
-148.5 -72.5 60.03024863730855
-146.5 4.5 60.08509121562956
-159.5 -44.5 59.54478424858027
-30.5 -32.5 60.26557861117358
167.5 -57.5 62.570241990102616
-7.5 -63.5 61.74724741500026
-32.5 11.5 60.16328006631027
152.5 -47.5 61.3420214617625
1.5 -21.5 61.01162951590358
-25.5 -3.5 68.2515768019554
-33.5 -34.5 60.88099424956682
-163.5 38.5 59.41645896752817
91.5 -28.5 59.97691010675478
2.5 -17.5 59.72785260314781
-155.5 89.5 59.186928013124906
52.5 -51.5 61.284624386693096
42.5 -35.5 61.08400677404309
-146.5 0.5 59.713590129885304
-35.5 -41.5 59.44154426501881
-145.5 18.5 60.18347979090849
-9.5 1.5 62.5449531259166
-120.5 -67.5 59.150081303817544
57.5 -10.5 62.049091388419974
78.5 -2.5 61.59058820397696
51.5 4.5 59.98900999893525
57.5 -11.5 62.38264156841257
-9.5 -63.5 61.01713986251615
-154.5 -42.5 59.673837841768965
-176.5 89.5 61.62150579143704
57.5 -14.5 62.64453318395822
53.5 -52.5 60.80451708263876
12.5 -43.5 61.02226644857658
-35.5 -39.5 59.46213393956637
-57.5 16.5 58.606522585638515
-0.5 -6.5 60.069191290139386
-16.5 49.5 62.41948594142865
175.5 87.5 60.49196678292306
0.5 -2.5 61.435950708287756
51.5 -48.5 61.62911093994454
151.5 -38.5 60.573966897195184
-44.5 -53.5 62.238989585684855
-33.5 -48.5 60.99383581705148
36.5 -38.5 61.79996353901967
-137.5 -71.5 60.61200750227233
-148.5 35.5 59.8246327205911
-32.5 27.5 60.22111206740521
-107.5 -65.5 60.16242073503233
39.5 -36.5 62.90517674694181
-177.5 -51.5 59.103321065991196
-152.5 29.5 60.5480519595965
-27.5 -65.5 61.88398991903894
-34.5 20.5 59.208146319973196
-145.5 -9.5 61.95733966161333
-170.5 -47.5 61.026169518162604
-0.5 -35.5 59.776121168732494
71.5 14.5 60.38830121903512
12.5 -44.5 62.700705472719946
-177.5 -67.5 66.89326695194094
17.5 -42.5 60.17032393080549
-58.5 17.5 59.35818562097873
-48.5 52.5 61.903267476676646
-150.5 -42.5 59.908613226039286
-39.5 47.5 61.893406952626876
51.5 -26.5 61.06877382492944
69.5 17.5 59.00563010803463
-28.5 -18.5 60.750190913826955
-20.5 5.5 60.79174384416913
-147.5 13.5 60.03291104528867
-124.5 -68.5 59.65258536813687
82.5 -5.5 59.65012839834847
161.5 -38.5 61.61059521321809
-29.5 -15.5 60.724562055749246
177.5 -53.5 61.19973973266343
-115.5 -66.5 60.54004446171956
81.5 -54.5 59.51996841501493
-34.5 -35.5 60.616892979337436
-27.5 8.5 61.85831631976644
57.5 -17.5 62.9138471041854
-166.5 -46.5 60.64440988360993
173.5 77.5 63.52005585519552
0.5 -39.5 60.304108937731456
-57.5 22.5 59.63098173284192
-153.5 24.5 61.71995249743463
2.5 -26.5 60.104946779459844
-147.5 -72.5 60.469136138402575
65.5 19.5 60.62097670870256
-128.5 -70.5 58.91547038292524
-175.5 89.5 61.62150579143704
-145.5 17.5 60.03642497256903
17.5 -41.5 59.95016428479441
-163.5 44.5 60.83281637431437
-154.5 28.5 60.45976324528342
-149.5 -17.5 59.869408764661564
-147.5 -34.5 59.70239935035013
-39.5 44.5 60.37963140182659
-148.5 -41.5 59.50457938966457
50.5 -23.5 59.4432772127466
-148.5 22.5 59.34703151989398
151.5 -37.5 60.21534476450155
97.5 -16.5 59.512292376897214
-170.5 -69.5 59.75064634157433
-176.5 -67.5 66.89326695194094
-147.5 12.5 59.64736856938044
-163.5 -45.5 60.40447565353597
-155.5 -42.5 59.63182714357076
0.5 -13.5 59.53556305127181
-35.5 -47.5 60.251406518310596
-173.5 -68.5 66.2430253290601
179.5 44.5 60.73420256957421
-58.5 57.5 56.35149456535668
1.5 -15.5 58.92467839502458
-19.5 -64.5 61.63416417770168
-148.5 34.5 60.09937949096027
173.5 -55.5 61.64809934306995
-160.5 -73.5 60.108426807556796
48.5 -46.5 62.5393032268445
179.5 -52.5 60.24836353009764
-25.5 -4.5 61.03542892135238
-145.5 16.5 60.187765731705866
-29.5 -54.5 62.9410011312334
166.5 54.5 58.321399956392405
-48.5 34.5 60.60669027912113
164.5 -57.5 62.799947114326216
-179.5 44.5 60.61393926167691
0.5 -37.5 61.14082783229541
54.5 -54.5 59.919868826089115
170.5 50.5 60.400254486341765
90.5 7.5 60.126654923546745
50.5 -47.5 62.30976459118197
1.5 -41.5 59.67548046944102
25.5 -46.5 62.049291167395225
-174.5 -68.5 66.26595719096885
170.5 -56.5 61.48509684000007
81.5 -4.5 59.95240843473721
94.5 -19.5 59.11995254468664
-72.5 77.5 60.12842423743971
45.5 -34.5 60.04659651736638
-49.5 53.5 60.29342512066083
22.5 -59.5 60.11052098873653
-158.5 -73.5 59.78314089104798
-26.5 -5.5 60.23831458495294
-119.5 -67.5 59.52186983317246
-178.5 44.5 60.8451519552971
67.5 18.5 60.748015235740986
-147.5 11.5 60.016664784035356
-145.5 15.5 60.592828800738104
175.5 -54.5 61.53776289103203
-55.5 28.5 59.74331205109783
-37.5 -0.5 60.26178756534267
0.5 -38.5 62.37713040780275
51.5 -49.5 62.306228452984755
-174.5 89.5 61.62150579143704
175.5 44.5 61.61906738720274
-153.5 -42.5 60.0596656362478
-31.5 -1.5 65.32616377168472
-176.5 -50.5 59.57343273154174
-171.5 -69.5 62.1624881380522
166.5 -57.5 63.3226320368314
-103.5 -64.5 60.617517243203935
89.5 5.5 59.95410352418627
-148.5 33.5 59.98608080622512
-160.5 -44.5 59.82489025197749
175.5 78.5 62.73304970686033
-27.5 -2.5 62.55701326493935
-146.5 14.5 59.81996404272183
-148.5 32.5 61.312052768891384
127.5 -36.5 63.56117810074725
93.5 -20.5 59.64850273358552
-157.5 -43.5 59.69504104562829
-163.5 41.5 60.76817391039283
-149.5 -18.5 60.28582307042497
-154.5 27.5 60.69586958056968
47.5 -31.5 60.17352662869569
-30.5 29.5 59.69328794354733
41.5 -49.5 62.228698151829164
-50.5 54.5 60.41307263069602
-48.5 8.5 59.44393351264898
-123.5 -68.5 59.53221764650408
56.5 -8.5 61.61687678501929
-147.5 -33.5 60.07630547096827
-151.5 -42.5 60.0596656362478
-30.5 -51.5 59.91692436177322
-147.5 -32.5 60.07630547096827
-146.5 -72.5 60.75592222371853
-35.5 -36.5 60.83833710456533
95.5 -19.5 58.999584823053844
-163.5 43.5 61.15776695952825
-171.5 46.5 60.9721354337423
-0.5 -11.5 60.63931466445062
-147.5 10.5 60.19920768641362
-0.5 -5.5 60.077042969704195
-136.5 -71.5 62.037895871317986
-146.5 -40.5 60.293832524771126
-146.5 22.5 59.82066344148753
128.5 -36.5 63.46550905730642
-178.5 -51.5 59.296384174397915
-13.5 2.5 62.355058408553134
-46.5 7.5 58.58685002653679
50.5 -25.5 60.28161896198163
12.5 -46.5 62.408112284664774
12.5 -45.5 62.35745250840019
-172.5 89.5 61.47164001583383
98.5 -9.5 61.99254758937263
-74.5 77.5 59.527602726470995
-127.5 -70.5 59.422485898425954
-58.5 18.5 58.820079861886406
-164.5 46.5 61.00784374342363
-177.5 44.5 60.608986181013734
88.5 3.5 60.09696008120707
-156.5 -42.5 59.737051743826484
74.5 9.5 62.66851660596753
163.5 -43.5 62.11156669372833
151.5 -41.5 60.96775982407541
-148.5 -28.5 61.00594736509223
-35.5 -40.5 59.747442126928775
-173.5 89.5 61.47164001583383
-171.5 89.5 61.47164001583383
-157.5 -73.5 59.559577601856034
67.5 -48.5 62.84747149684848
88.5 -30.5 61.511025832307794
-106.5 -65.5 60.214483843439055
-19.5 37.5 67.28899091236944
-27.5 -22.5 61.507585209799124
-164.5 40.5 59.63014721451672
-12.5 -63.5 61.916681666434904
-149.5 -41.5 59.58080831172915
-17.5 42.5 59.9566663553535
-153.5 23.5 61.51302962314168
-52.5 11.5 59.46301046996446
-170.5 89.5 61.34519516926513
75.5 7.5 59.0065791040996
42.5 -49.5 62.034539075145176
39.5 -50.5 60.842881378752665
-148.5 31.5 61.52955839239534
-175.5 -68.5 65.31025268238281
0.5 -36.5 60.80859827038673
-26.5 -6.5 60.45200381205607
-29.5 -25.5 61.27984524506172
47.5 -46.5 62.24975912996333
63.5 -50.5 61.078603013057375
88.5 -27.5 60.733323022294464
18.5 -45.5 61.68948913562851
-149.5 -19.5 61.790910436684456
-146.5 -0.5 60.81504173031396
-55.5 55.5 57.24538113106678
-18.5 39.5 68.70400023510544
75.5 -1.5 59.78522651931925
-147.5 9.5 59.62973393153639
-73.5 77.5 59.728961268421635
-22.5 36.5 68.910682567207
-28.5 -19.5 60.428273590561695
35.5 -39.5 62.031400110365524
38.5 -50.5 60.5105525125307
-151.5 37.5 59.307707710631306
-146.5 -6.5 60.479821086092116
68.5 17.5 60.280841284954285
63.5 20.5 58.83723295814147
-32.5 -33.5 60.10844220586403
-0.5 -32.5 59.430166417634446
-146.5 20.5 59.15659320812955
12.5 -48.5 61.66176918576336
46.5 -32.5 60.39125241178439
-154.5 26.5 59.855548328547094
-167.5 -46.5 60.7151045633019
-22.5 53.5 61.36870200487907
152.5 -42.5 60.32500222154635
-0.5 -34.5 59.77147340456334
61.5 -50.5 62.088687837637906
-118.5 -67.5 59.73933614615379
76.5 -1.5 61.110454172414705
59.5 -9.5 61.217435342739975
50.5 6.5 61.308149748361814
99.5 -7.5 62.43096005358088
178.5 -52.5 60.41351028428253
87.5 3.5 60.20485609519047
-147.5 22.5 59.217969540377474
80.5 -3.5 60.95926216757938
-109.5 -66.5 58.172787631548374
-152.5 -42.5 58.265701368242524
-30.5 -31.5 57.67866399831576
-147.5 8.5 57.91735797262097
-163.5 42.5 59.5110136810973
-42.5 38.5 58.475793841102494
176.5 -53.5 59.749402285388086
77.5 -1.5 59.083276724708746
53.5 -54.5 58.30578540884751
-161.5 -44.5 58.20687268447983
50.5 -48.5 59.52606986088711
-56.5 83.5 56.96742062226411
-146.5 21.5 57.88169757584203
37.5 -50.5 58.6232904702124
-36.5 -44.5 57.823178724931985
-171.5 -47.5 58.928219917085336
31.5 -53.5 62.677376082641494
-149.5 -24.5 59.59775930997759
91.5 9.5 60.44332675699994
-36.5 -45.5 58.51482162741344
162.5 -42.5 60.036535984910735
131.5 -36.5 60.642106516095154
-147.5 -40.5 58.01945044629197
-170.5 46.5 59.63891677069595
-146.5 19.5 58.43117891289237
-164.5 -45.5 58.77599546959472
61.5 21.5 58.68768568785737
-168.5 46.5 59.496338840810395
-57.5 25.5 58.17302933817904
-122.5 -68.5 57.20297196646965
51.5 -21.5 60.03586913548082
-102.5 -64.5 58.575025418152734
62.5 -50.5 59.506675181465724
96.5 -17.5 57.316416441749396
-167.5 46.5 59.36287154562294
-177.5 -49.5 57.64081611700035
-145.5 -72.5 58.57734289998035
169.5 -56.5 59.86470468691297
-169.5 46.5 59.676406161007556
-126.5 -70.5 57.64161173016087
1.5 -22.5 59.24788743566186
-156.5 -73.5 56.59390043479724
-26.5 -65.5 59.66240982455358
-149.5 36.5 58.057126289494875
-145.5 -10.5 59.146175483760196
-147.5 3.5 58.039320336360895
-29.5 -28.5 58.06112606585453
-146.5 -38.5 57.98710636346816
-153.5 22.5 58.67824288512392
-157.5 -42.5 57.94355618294315
172.5 -55.5 60.317045440522115
51.5 -51.5 59.667313825266234
-47.5 35.5 58.04984547759059
84.5 -4.5 59.54249744893388
-54.5 30.5 59.13893277310989
-45.5 6.5 57.803390968709785
7.5 -58.5 59.13997531177415
-54.5 64.5 60.47808169119058
-147.5 7.5 57.6157841295813
18.5 -44.5 59.14830327832594
-36.5 -43.5 57.04270910921445
99.5 -30.5 56.091756011293434
-164.5 39.5 57.41765189751996
-149.5 -25.5 59.46429201479012
-36.5 -42.5 56.64634682938501
130.5 6.5 61.973146052424745
-166.5 46.5 59.36287154562294
79.5 -2.5 58.649233522481794
-34.5 19.5 57.89127473536227
2.5 -27.5 58.136848045055324
-148.5 -29.5 58.94909832524787
5.5 -59.5 58.968076608003
165.5 -57.5 60.24703759402123
1.5 -60.5 58.987788150529504
-6.5 -63.5 59.30257276661772
0.5 -12.5 58.02235875410367
-154.5 25.5 58.074310259179455
1.5 -40.5 57.16850767880066
66.5 -49.5 59.41029174308985
-54.5 62.5 58.469960855095515
-3.5 2.5 58.95774889123141
-150.5 -41.5 57.790240978852765
-135.5 -71.5 59.16098618124401
-58.5 19.5 57.66675428890056
38.5 -37.5 59.61998582420757
-85.5 -60.5 60.860768519072145
49.5 -47.5 59.03818422713415
