122.5 82.5 109.13742715296834
76.5 -45.5 111.95426391055261
112.5 -55.5 109.91322805824595
113.5 -55.5 110.343127105865
-122.5 7.5 105.56127952862407
64.5 -22.5 113.95345192001763
-9.5 -23.5 110.82111060364547
85.5 -36.5 112.30329642334385
-120.5 -10.5 118.7609909905342
21.5 -51.5 113.49514432456823
-43.5 9.5 109.76809442014957
89.5 -49.5 110.0320394800711
-144.5 -63.5 103.90324621056835
106.5 -42.5 109.76695397895972
-124.5 -33.5 108.72654186297626
-29.5 -60.5 125.07066681960208
123.5 78.5 114.42844828995257
-92.5 -20.5 110.6134431553649
134.5 2.5 106.63251823771081
-9.5 -25.5 114.01570701516232
-123.5 -35.5 110.37285800805374
-20.5 -46.5 109.29809601700265
-34.5 52.5 121.71452007923673
-11.5 -52.5 109.51097861897404
-19.5 63.5 103.91866551731756
84.5 -36.5 119.08971939377123
-6.5 72.5 100.72053862981471
-137.5 57.5 104.89058106005736
-137.5 -59.5 108.0409056432699
-122.5 6.5 106.17269275206229
-69.5 -60.5 108.49063962611281
-91.5 -26.5 109.72248825775527
-93.5 -15.5 110.12611196348116
-9.5 -22.5 114.18225612230518
-118.5 -2.5 112.7919617224977
63.5 -15.5 113.57973734173714
-136.5 48.5 111.90361550895138
-118.5 22.5 107.57117527315015
-126.5 -48.5 110.38068883355005
-121.5 27.5 105.74884985036253
152.5 -63.5 111.15729134244782
-102.5 -49.5 110.45744264195731
-84.5 -37.5 109.7904821912827
-126.5 -23.5 107.9288108587112
-158.5 -57.5 108.90878753227524
-125.5 -20.5 109.1657616962633
-15.5 -5.5 110.75061853543308
41.5 -42.5 124.04796497079843
156.5 -56.5 115.13596084620184
-137.5 50.5 109.91415634753338
90.5 86.5 108.13379869124121
-126.5 -24.5 108.16166289072862
63.5 -16.5 112.2430935335453
91.5 -51.5 107.79292688434758
-93.5 -17.5 110.47324594408082
-1.5 -56.5 111.95807339516237
101.5 -54.5 107.11341441374253
-126.5 -22.5 108.93158814773447
6.5 42.5 85.57115643768753
-88.5 -11.5 108.48285225554751
-126.5 -25.5 108.7389899133566
-88.5 -9.5 108.44473138809781
-3.5 85.5 112.26622695028722
-27.5 64.5 111.34405101041143
-11.5 -43.5 115.48523150724661
-88.5 -10.5 108.86219657023646
-121.5 31.5 104.88987462834451
100.5 -40.5 113.0994546119471
-118.5 11.5 104.89622076678369
-119.5 15.5 105.51091779263393
-126.5 -26.5 109.83382456911968
-127.5 -50.5 110.57775511193397
-126.5 -56.5 111.17581280076539
-107.5 -53.5 108.8790084018169
-94.5 -44.5 109.83672820425778
-107.5 -55.5 103.43142958574467
-25.5 1.5 125.95482989178866
-127.5 -51.5 111.08579422253588
49.5 -36.5 131.48750971629394
-68.5 -58.5 105.08561800155935
-126.5 -27.5 109.29821603802453
-80.5 -51.5 104.59318513504297
-47.5 -57.5 111.56158302060103
91.5 -50.5 108.78469968056868
-90.5 10.5 110.88935793319726
136.5 27.5 107.50929530518206
-122.5 -56.5 112.4931266836885
-123.5 -36.5 109.96590361182814
-126.5 -28.5 109.52607611254044
-15.5 -60.5 91.58732431358195
-88.5 -34.5 108.16353450004407
134.5 5.5 107.7392057652565
165.5 -66.5 109.79213271467599
-118.5 -0.5 112.14735123887351
-33.5 51.5 108.35237947992961
-126.5 -29.5 109.345663459175
-32.5 50.5 106.30484280417369
-86.5 9.5 105.90359990074946
138.5 43.5 106.8889497266487
-88.5 -8.5 108.90655884271945
-67.5 -58.5 106.66404461113311
-126.5 -30.5 109.89791434113948
74.5 87.5 120.67804301421103
-121.5 28.5 106.5231466128329
-32.5 41.5 112.76752673193616
-126.5 -31.5 108.56147630415104
102.5 -54.5 106.10017519367153
-119.5 1.5 108.85141438948885
-34.5 -60.5 101.58870065521732
-40.5 28.5 100.78825047526757
115.5 81.5 93.40077636107047
-88.5 9.5 113.63305439164053
-91.5 -22.5 109.73292053729645
-30.5 -60.5 118.34309966824908
-95.5 12.5 111.3367908994794
-41.5 -63.5 106.91177077064951
-120.5 2.5 106.94203964517062
-89.5 -31.5 106.86575894677817
-23.5 67.5 106.97338494819952
97.5 -53.5 106.8351542936598
136.5 40.5 83.04931563921018
-69.5 -57.5 102.95816483726281
6.5 39.5 74.26279794638137
-42.5 14.5 110.41773172064846
-179.5 -62.5 109.23057557330203
4.5 71.5 100.87759071069227
118.5 -43.5 108.71379430475343
8.5 86.5 112.30919327122591
-119.5 -6.5 108.57812705283301
-34.5 59.5 106.81084405100678
-121.5 29.5 105.50775035301496
-126.5 -32.5 105.39101771796801
-118.5 -1.5 111.60433407477575
-70.5 -59.5 102.39010360994486
118.5 80.5 98.13495136398588
-122.5 -46.5 108.95270521043228
-121.5 4.5 106.43593662738608
81.5 -29.5 111.75820111639464
-92.5 -19.5 108.98729845893976
-68.5 -60.5 105.46896837132803
114.5 14.5 103.43628040480715
-31.5 55.5 113.27294243046344
-121.5 30.5 105.72310150532967
128.5 -43.5 107.12133714646288
97.5 -38.5 109.38959866138012
-0.5 73.5 111.15246100489588
-87.5 -3.5 108.5862653336124
-92.5 11.5 111.02203481930248
173.5 -23.5 102.93748191806382
12.5 73.5 92.6352869408765
-122.5 5.5 106.31559024318203
-88.5 -7.5 107.9740482431148
116.5 84.5 110.01258611311133
-90.5 -28.5 108.59156551120212
-127.5 -57.5 105.72874559271742
104.5 -54.5 107.80935796487873
40.5 87.5 132.33364645960532
-17.5 -28.5 109.2254019254975
-79.5 -52.5 103.27660333504907
-147.5 -53.5 109.73788899579256
-119.5 18.5 104.86644156545539
-118.5 10.5 104.36812907572894
-120.5 -39.5 109.07811201693298
-83.5 -2.5 104.87313110354013
-161.5 -58.5 107.41650624707265
63.5 -14.5 110.94188921570479
2.5 82.5 100.62817726857492
-91.5 -45.5 108.4313932093548
5.5 -55.5 94.65263591822573
-33.5 1.5 99.63269235652778
2.5 78.5 112.21102449343061
-18.5 -14.5 110.18812275418205
116.5 -55.5 105.72129164908205
161.5 -61.5 113.76438788031992
64.5 6.5 113.93006264756623
-119.5 14.5 105.34461148865117
145.5 -59.5 107.33393627924902
-101.5 -47.5 108.95976816708546
-138.5 -60.5 103.66739961388535
-120.5 -42.5 109.13849431146122
142.5 13.5 90.23976110736893
-16.5 -20.5 109.61887695676485
-93.5 -16.5 108.88641093330749
117.5 -43.5 108.48461941297853
-12.5 -57.5 113.87947311833379
51.5 14.5 114.5659349747559
115.5 -55.5 106.35684063810295
121.5 83.5 108.90576099931064
-137.5 49.5 110.0398558209094
142.5 15.5 113.66029035394826
54.5 -36.5 104.59216369849946
-82.5 -39.5 108.10873886624438
92.5 84.5 102.64819696920637
-89.5 -46.5 105.97968417999499
170.5 -22.5 105.89186905151729
-15.5 83.5 112.51657052392876
42.5 85.5 105.93749045672928
-123.5 -37.5 108.29151562185362
-88.5 -6.5 107.00066872996989
-121.5 -44.5 108.65684701390664
55.5 16.5 88.11556597832706
-8.5 -3.5 106.61917036990182
134.5 3.5 104.461675090533
-157.5 -56.5 108.07517404067535
142.5 14.5 101.79794376234084
-83.5 -38.5 106.11730990370695
-118.5 9.5 108.61678173110654
-22.5 -37.5 108.78884159290855
69.5 -12.5 110.34331870727297
81.5 -46.5 108.66944546715125
117.5 -55.5 105.54090382036847
-89.5 10.5 111.30382296189613
-6.5 -46.5 114.01670510409694
-126.5 -12.5 107.81936866421839
-42.5 22.5 108.09419409889558
-92.5 -45.5 107.69665083427208
-120.5 8.5 103.74679083015042
-70.5 -60.5 101.63867869763952
-88.5 -33.5 107.09166639243331
-122.5 33.5 103.75322034160598
-88.5 -5.5 106.25767759631715
125.5 80.5 113.24525392539435
-78.5 -40.5 108.26165697226737
-88.5 -12.5 103.24034252243916
-119.5 -5.5 108.68734432408193
-91.5 -21.5 108.05057278283566
-60.5 -56.5 115.19764078458573
68.5 -31.5 108.87973261594547
76.5 -23.5 108.36948786261924
169.5 -63.5 107.28242711887393
-88.5 -4.5 105.5379873205769
-127.5 -49.5 108.09747496088916
-138.5 54.5 103.40104644880809
155.5 -56.5 109.26524409865759
-86.5 -48.5 106.00304641663011
-68.5 -61.5 102.74981621688812
142.5 17.5 102.05061166100982
74.5 -45.5 107.87609107364477
-67.5 -60.5 100.92773096578554
107.5 -42.5 107.60146324328485
121.5 7.5 98.99990123334439
-9.5 -24.5 108.34757518243507
-119.5 26.5 105.42705154793902
-41.5 -59.5 106.59684952993538
-84.5 -36.5 106.5307172583519
-9.5 -16.5 114.89050012328855
-137.5 56.5 107.85468893410395
39.5 -42.5 111.13053918779397
114.5 -55.5 108.00810485880014
-126.5 -13.5 108.22980269058753
-11.5 84.5 105.56552484535516
-12.5 -36.5 110.82805478233199
-72.5 -64.5 102.2840355432977
-34.5 -59.5 99.48852671656667
63.5 -26.5 109.27166404792764
138.5 29.5 92.20955034857703
-138.5 53.5 105.51160289908465
-22.5 -42.5 107.97509161166967
-34.5 33.5 100.88758111731633
-121.5 -38.5 108.2158618846992
-41.5 26.5 102.85601644513496
-22.5 -41.5 107.97275689103475
63.5 -18.5 120.934406548591
66.5 5.5 113.0383512918795
110.5 -42.5 107.85027357928186
-119.5 0.5 107.90758810643521
-92.5 -18.5 108.87500430105727
73.5 -40.5 107.54415726608289
-124.5 38.5 101.98421660793188
-50.5 -54.5 106.92914747315099
-89.5 -30.5 105.44024113225193
143.5 -48.5 110.36125852545982
-44.5 -56.5 106.15491006247963
135.5 29.5 104.83550736545503
66.5 -29.5 107.95042569151755
-11.5 -53.5 105.84375579687544
102.5 -41.5 107.9997074533144
-119.5 13.5 104.08114084661871
-121.5 -10.5 109.67231079771344
-134.5 -58.5 106.71465263663063
-90.5 -23.5 107.1184893928795
-123.5 -47.5 112.95383486247522
-17.5 64.5 103.06408251643846
100.5 -54.5 105.25569844017554
124.5 -55.5 107.46538593623782
-11.5 -42.5 109.93265498009039
-70.5 -63.5 107.376427549485
39.5 -45.5 92.99331805466215
-11.5 -39.5 105.92749592897049
-30.5 0.5 107.43541238777341
63.5 -13.5 109.47105365741974
70.5 -3.5 110.04979169223242
-145.5 -64.5 99.76368182405635
-126.5 -14.5 107.58241941728447
-22.5 -38.5 108.30540322205542
-102.5 -50.5 104.37679898328193
-120.5 -40.5 107.90901981957933
-120.5 -41.5 108.00738612976038
-87.5 -35.5 107.90171476470094
-126.5 -21.5 107.34102416901364
169.5 -65.5 109.41473664052637
-38.5 30.5 97.67706210021223
-138.5 55.5 102.9201826566766
72.5 -42.5 107.42843619413888
156.5 -65.5 112.54625473936882
118.5 -55.5 105.7601351929175
-119.5 -4.5 108.27550541950922
-30.5 62.5 108.27076742586598
-73.5 -65.5 105.13936492274733
144.5 -48.5 107.95484929548412
69.5 -32.5 109.2170218796566
-135.5 40.5 97.41132472711033
-90.5 -27.5 108.43628345182205
-43.5 16.5 109.79084158312078
-37.5 9.5 105.53783677994434
-66.5 -60.5 101.17932284526519
45.5 -38.5 119.38000280291962
129.5 -43.5 106.458559743023
12.5 76.5 75.90252729187827
121.5 -55.5 106.241560214716
61.5 -30.5 107.53298166742246
12.5 -53.5 97.94706592356287
120.5 -55.5 105.88652058910026
-64.5 -57.5 109.8105936517662
1.5 81.5 102.7773722805227
-90.5 -24.5 101.64945605497684
91.5 -36.5 108.75234689025923
10.5 83.5 96.72914183259456
69.5 85.5 107.37784844142848
-39.5 29.5 99.59825296107675
-48.5 20.5 111.6496060238723
92.5 -52.5 106.51675127957951
-12.5 68.5 102.84670982394502
-121.5 3.5 107.25062208820314
-139.5 -61.5 102.47094891171751
-120.5 -9.5 109.67312231363088
-126.5 -15.5 107.11554952065809
84.5 -47.5 106.43540458207848
95.5 -37.5 109.07554086206659
-16.5 -48.5 106.88237703222607
103.5 -54.5 105.67896847663029
-106.5 -52.5 105.99400255891749
87.5 -36.5 109.8252413493181
39.5 87.5 131.223421762557
20.5 -54.5 103.51115702923336
115.5 -43.5 107.82035324053736
-29.5 5.5 100.69030016794378
-91.5 -20.5 107.94275871468639
26.5 -51.5 104.39512300679155
-122.5 32.5 105.75583650205714
-68.5 -62.5 100.0602434172725
143.5 -59.5 106.03872916036303
1.5 37.5 107.59681215137093
65.5 -25.5 110.35562663346256
-68.5 -57.5 102.57071224606737
-156.5 -55.5 107.78206331030302
-17.5 -18.5 108.46984513040337
123.5 -55.5 107.0527983099541
-110.5 -56.5 105.41010119679362
157.5 -56.5 103.83895971547463
-124.5 -34.5 107.7643616060782
111.5 -42.5 107.83024926079334
-42.5 8.5 109.12980967400544
150.5 -54.5 107.93235551966744
19.5 84.5 94.01776745009721
-88.5 -32.5 106.02541504184366
96.5 -53.5 104.88345525459701
86.5 -48.5 107.01176950218426
-119.5 20.5 104.22081037446074
-136.5 42.5 105.51789063770511
-136.5 43.5 106.36397410562603
82.5 -30.5 108.4696184415259
11.5 72.5 83.3872173841159
-120.5 1.5 107.4526826208908
-165.5 -67.5 100.45644820002425
-120.5 17.5 103.19472603796079
-65.5 -60.5 99.97823681099594
108.5 -55.5 106.28180413599239
-127.5 -23.5 106.85426548454349
149.5 -54.5 109.86936210808106
-106.5 -54.5 102.63585074976038
-119.5 12.5 104.15630740974333
171.5 -64.5 102.15266286489855
-138.5 52.5 104.59631226640028
-126.5 -16.5 106.92121181723665
-135.5 -58.5 107.51275252548118
54.5 -33.5 109.0113200042345
-132.5 -53.5 113.8723620670952
139.5 26.5 105.63812187482458
-12.5 -51.5 106.32837906730228
-112.5 -57.5 103.43388732375146
-18.5 71.5 111.76496064171393
-101.5 -48.5 108.52986061414275
83.5 -35.5 107.9562715252619
-127.5 -22.5 107.4344589911985
-127.5 -24.5 105.20455163402465
-92.5 -17.5 108.24865552537474
75.5 -45.5 106.73658616694412
-42.5 21.5 106.935379432523
-119.5 -3.5 107.6984298979674
-131.5 -52.5 107.13332873947678
166.5 -66.5 102.74546791190471
-21.5 -39.5 110.35639278546577
-126.5 39.5 105.61465923416233
-74.5 -66.5 102.4695819366186
125.5 -55.5 107.0772713639402
13.5 -53.5 96.51864339853904
7.5 86.5 109.61825867696396
-119.5 25.5 104.48950422070342
-8.5 -2.5 101.95902600002489
91.5 86.5 105.17567452111473
-64.5 -60.5 104.42826617408906
119.5 -55.5 105.32782862502718
-83.5 -37.5 105.67248072028319
-77.5 -67.5 101.43262428777918
54.5 16.5 91.64235547040927
11.5 74.5 95.92873039328555
72.5 -44.5 111.097627152192
-127.5 -25.5 106.78301821197685
-120.5 16.5 103.11425943955939
100.5 -39.5 107.86658441895678
-136.5 44.5 107.2982282915005
-3.5 -57.5 97.0524225828958
122.5 -55.5 106.66539650396855
-124.5 -35.5 107.52740723599007
-122.5 34.5 104.35628302800343
0.5 -51.5 106.07127402101756
75.5 87.5 109.11967195935664
-119.5 19.5 104.93030976745908
15.5 -53.5 102.69063096592619
-17.5 -58.5 117.81050815938217
-26.5 51.5 103.11940800332793
-36.5 36.5 109.08632052710844
70.5 -35.5 107.08422661597507
112.5 82.5 92.39777347458039
88.5 -49.5 106.98448165081271
-22.5 -43.5 107.90205436744117
-80.5 -68.5 102.90904596056214
-127.5 -26.5 108.38614825792692
-119.5 -0.5 107.18598987196611
-26.5 39.5 109.08110655066784
-88.5 -47.5 106.3424305466009
-90.5 -22.5 107.81910890962867
-123.5 6.5 106.198989084698
-49.5 16.5 102.24392059007364
-12.5 -35.5 110.5112504546892
-63.5 -60.5 105.71490417335075
-89.5 -29.5 104.53102729704744
2.5 80.5 102.5799247331202
-126.5 -17.5 107.41749915927994
-77.5 -54.5 100.05220263977428
-152.5 -65.5 100.29366394568765
-136.5 41.5 102.34429557693704
-38.5 -59.5 100.98757555593994
-4.5 85.5 107.7696418477313
142.5 16.5 99.36080453625266
-127.5 -27.5 108.05133725314225
-125.5 -33.5 105.28676931791291
3.5 -52.5 103.02996604177574
-94.5 12.5 109.31836414754844
141.5 -47.5 108.81206437249409
-41.5 12.5 110.86140316320382
-30.5 6.5 106.171823907825
-128.5 -58.5 99.24032798711686
-9.5 -9.5 101.3370035610733
-71.5 -58.5 99.27547230389875
-133.5 -53.5 112.44313858195848
-136.5 47.5 109.14086120185658
-122.5 4.5 106.16625478193356
-18.5 -30.5 107.65191600487123
-21.5 -40.5 108.78061459725802
-81.5 -39.5 107.75877595857564
-87.5 -11.5 102.29159123274805
-121.5 2.5 106.94060818505345
-127.5 -28.5 107.77341204852551
-8.5 -17.5 105.62773284377539
171.5 -23.5 104.39185254568908
-87.5 -34.5 107.11716950675
-14.5 66.5 105.04575156362962
-32.5 42.5 107.08144781350491
49.5 -39.5 97.99879961582823
77.5 -46.5 103.76260327341643
-83.5 -49.5 105.7842271025829
-9.5 -54.5 104.005783286022
-7.5 -20.5 104.34041768790225
-119.5 24.5 104.76599319457189
-124.5 -36.5 107.85494336792136
-120.5 -8.5 108.55505117906155
90.5 -50.5 106.17750431656819
157.5 -65.5 108.67932612948442
-127.5 -29.5 107.41234435945351
-119.5 -2.5 107.23094153719305
-91.5 -19.5 107.91743910210243
-126.5 -18.5 107.11280977818738
130.5 -43.5 105.88610979950063
-90.5 -25.5 102.26536547349946
-87.5 -10.5 106.70613480354832
-17.5 -29.5 108.40948112459994
144.5 -59.5 105.85940613198387
-119.5 11.5 104.20159373748324
-15.5 -7.5 112.81831015368327
-75.5 -55.5 100.40713085502607
2.5 -55.5 99.96694926245964
-8.5 -26.5 107.95793588736859
-18.5 -26.5 108.078184117196
108.5 -42.5 107.73351967508432
73.5 -20.5 108.14410988164673
11.5 75.5 92.08447195846436
116.5 -43.5 107.07049950782488
-127.5 -30.5 107.55026858719171
-175.5 -61.5 105.69955188530429
154.5 -56.5 108.60220219753164
104.5 -41.5 107.29314368773831
-122.5 -10.5 109.55327594675516
-80.5 -39.5 106.5104944504758
-15.5 -6.5 108.94377401851195
-10.5 -44.5 114.07341461801676
-22.5 61.5 100.47820997642773
-22.5 -36.5 108.60204940016129
-36.5 -63.5 106.3118727024654
-90.5 -26.5 105.49968362335025
-62.5 -60.5 105.66151424522333
-122.5 27.5 103.3549880299715
-124.5 -47.5 108.15903011791164
-16.5 -21.5 109.53628900885222
62.5 -21.5 106.25009459271132
-127.5 -31.5 106.84534106280302
-169.5 -60.5 105.3550424840897
-87.5 9.5 106.53846167999805
43.5 85.5 103.64257008194306
68.5 3.5 108.00607907917582
-120.5 15.5 103.16656183294475
-87.5 -9.5 106.52074259001385
-137.5 48.5 109.71707026055223
7.5 42.5 80.86819116775366
151.5 -55.5 109.97242762080559
-31.5 54.5 104.6092267661135
70.5 -4.5 106.28873431118286
-91.5 11.5 107.6716988300138
-88.5 -31.5 104.8486394647279
14.5 -53.5 95.81452895075603
-9.5 -15.5 105.42119045748277
-1.5 -48.5 108.39360966139715
-155.5 -54.5 106.90553295523944
-33.5 38.5 111.8348145077735
63.5 7.5 105.67653062639205
-92.5 -16.5 108.20954669262163
99.5 -54.5 105.128425712851
-17.5 -10.5 106.33145304218982
38.5 87.5 130.4025270257149
-122.5 -45.5 108.25812801167494
-75.5 -66.5 102.19433891028905
-42.5 24.5 103.11794317724551
6.5 -55.5 92.24094112030372
137.5 32.5 104.34378187942048
-25.5 59.5 96.95221917086523
78.5 -46.5 104.89623157998278
112.5 -42.5 107.02025726240552
103.5 -41.5 107.83622361327726
-54.5 -58.5 106.22352172187877
-123.5 5.5 106.02655775614977
-126.5 -19.5 107.97396754924628
-0.5 -49.5 106.76595116841195
91.5 84.5 99.71009882293765
-119.5 -1.5 106.86539112108618
-13.5 -50.5 107.29409699681257
74.5 -21.5 107.68637476783398
-136.5 45.5 106.90438267645071
-71.5 -56.5 104.15371144532212
-124.5 -37.5 107.70247005168338
-57.5 -55.5 107.34620990051964
-138.5 51.5 108.47511337341295
-36.5 32.5 97.7922130720567
-90.5 -21.5 107.44182819984678
-48.5 21.5 111.08496102297195
56.5 16.5 95.68326607499797
-87.5 -8.5 106.47141949880452
-7.5 -58.5 109.47923297446731
-125.5 -56.5 109.40932850611048
-127.5 -32.5 101.64594717024278
-82.5 -38.5 106.01385361017012
-122.5 28.5 103.9073592222147
-58.5 -59.5 107.30476158768724
-37.5 6.5 108.92227147165944
-120.5 -7.5 108.39925788901826
98.5 -38.5 108.58197919661703
-119.5 23.5 103.41187970280694
93.5 -36.5 108.1431973819886
155.5 -65.5 108.20184807270215
-95.5 13.5 109.37373479596036
-138.5 50.5 108.64339189586494
-159.5 -66.5 97.97970127220566
73.5 -45.5 109.74339707710334
-22.5 -44.5 107.67519703240076
-8.5 -30.5 100.9197328828538
-121.5 -43.5 107.56915331016327
-122.5 31.5 106.12811002040047
-140.5 -62.5 101.36029515764012
107.5 -55.5 104.91792962376466
-9.5 -10.5 98.64984447174206
-105.5 -51.5 106.21762205320367
78.5 -24.5 102.23392527534232
-46.5 -57.5 103.11110870688098
-119.5 10.5 103.40838161627113
-120.5 0.5 106.59147522670187
60.5 -28.5 112.74160009399462
4.5 39.5 64.73588511554819
-123.5 35.5 104.21112296499976
142.5 -47.5 109.02187323154078
107.5 85.5 118.69812688161946
-113.5 -57.5 104.56389573113127
75.5 -22.5 107.51848462015587
-69.5 -62.5 102.90732548661953
-31.5 53.5 110.51570556903575
-119.5 21.5 103.63874607379978
121.5 79.5 102.53417995207363
-10.5 70.5 99.08278411465922
-30.5 56.5 98.40693203377461
-136.5 -59.5 103.62603559223545
-29.5 -62.5 105.73787164796964
131.5 -43.5 105.86225998265081
-16.5 -49.5 106.33594153691473
-25.5 -61.5 94.67178135030176
-122.5 29.5 105.02719002612709
118.5 16.5 103.25099707106229
-87.5 -7.5 106.23966245150399
-79.5 -53.5 103.45968006804357
-163.5 -59.5 107.52889504712161
-89.5 -28.5 104.44350667816296
115.5 12.5 105.63936937798508
-9.5 -8.5 102.08394601952506
-86.5 -3.5 106.140171120415
92.5 -36.5 108.12512038972514
-11.5 -34.5 108.27537283763186
-34.5 3.5 108.13965816443904
-91.5 -18.5 107.83198672115003
-89.5 -23.5 106.93025278614107
-37.5 57.5 103.40527311274109
-87.5 -33.5 104.3230449061753
-67.5 -57.5 97.45149560735497
-126.5 -20.5 107.88079884111232
-121.5 -39.5 107.26773113848515
-83.5 -36.5 104.26941395499348
152.5 -56.5 113.23683956378395
-136.5 46.5 107.81484675413418
-43.5 15.5 111.41509535175099
-120.5 14.5 103.23739443608564
70.5 -1.5 101.2072040376973
-119.5 22.5 103.74196035951405
-86.5 -35.5 106.81563262377028
-67.5 -61.5 98.35944096161433
53.5 -34.5 115.10021611542264
-122.5 -38.5 107.72516057698039
-123.5 36.5 102.94605872417873
88.5 -36.5 109.63061831324865
-92.5 -15.5 106.42067336328904
-143.5 -63.5 98.36027183773129
-2.5 70.5 98.45595555316586
-100.5 -45.5 104.60120593729528
95.5 -53.5 103.84601668928636
67.5 -31.5 108.41896824039355
72.5 -39.5 106.0736518322293
-126.5 -57.5 104.17564055734519
-42.5 20.5 103.46900980361535
45.5 -41.5 98.92280048167116
137.5 13.5 104.12543336544398
137.5 15.5 103.81309584748922
-37.5 -59.5 99.07718401258842
-100.5 -44.5 104.7250794048962
80.5 -46.5 108.1729206182173
-87.5 -6.5 104.77842430261552
69.5 -11.5 101.09187588063168
-79.5 -39.5 106.33868728408862
-93.5 12.5 107.41616077340905
-138.5 57.5 100.64477895992812
132.5 -43.5 105.86225998265081
-120.5 -6.5 108.07674173829673
137.5 14.5 102.83402348166337
-71.5 -63.5 107.03184572778058
-4.5 -47.5 108.55820333767986
-100.5 -42.5 109.39253885852399
-120.5 26.5 103.96729917472199
-78.5 -67.5 101.73331406562251
-159.5 -57.5 103.85689738126128
176.5 -63.5 106.04644912349357
59.5 10.5 103.5545834199859
-101.5 -49.5 106.51416953097812
-127.5 -21.5 107.36361963212957
-121.5 1.5 107.08335330410105
-90.5 -46.5 104.702721422699
-22.5 -45.5 107.47528708374095
132.5 -56.5 103.8352518858111
106.5 83.5 96.05757595541822
81.5 -28.5 107.13189726451041
-18.5 -31.5 108.74375832216178
131.5 -56.5 105.56677741856214
-72.5 -65.5 101.42077411756809
6.5 40.5 75.86999155450512
-33.5 7.5 111.92586389435202
63.5 -17.5 113.5706110146551
133.5 -56.5 101.95294752129132
94.5 -53.5 103.81163938796448
-35.5 -59.5 95.73394805148952
-139.5 54.5 101.7144636327889
-106.5 -55.5 100.25401246310412
6.5 86.5 109.51485175055703
-119.5 9.5 103.76486665289353
-122.5 30.5 104.1916485583482
130.5 -56.5 105.41156313284786
-88.5 10.5 108.24240324165675
-90.5 -20.5 106.9220733629795
-138.5 49.5 109.00930541179898
22.5 -51.5 104.93190446003207
-87.5 -5.5 102.74835896899366
133.5 -43.5 106.35420624987057
-61.5 -60.5 107.23095294702412
-77.5 -40.5 104.97064928769355
-88.5 -30.5 104.8100935310572
-9.5 -7.5 103.08441382672618
-136.5 40.5 96.4281220609759
-92.5 12.5 106.86626107086414
134.5 -56.5 101.72149225688254
-11.5 -41.5 107.55507699267285
-48.5 25.5 110.86630391744647
-122.5 3.5 107.13213901838677
109.5 -42.5 107.84622596736673
117.5 16.5 104.01916670145523
166.5 -62.5 117.14877442335995
137.5 12.5 100.15086694555572
-106.5 -53.5 104.98917352724875
-139.5 53.5 104.43807514814671
96.5 -37.5 108.6791549491254
91.5 -52.5 105.25440069231978
-125.5 -47.5 107.74055556519129
-33.5 60.5 105.30554560509842
-87.5 -4.5 100.63724311178025
-5.5 -46.5 106.42555957262861
160.5 -66.5 104.77623765733053
-17.5 -9.5 106.29101439954158
135.5 -56.5 101.88054120365014
37.5 87.5 130.1891925252154
125.5 -42.5 102.74637756671362
129.5 -56.5 106.10114599998073
71.5 -37.5 106.24638441581911
-83.5 -69.5 98.46758573222404
-120.5 13.5 103.27545124091215
-123.5 7.5 105.52828385928822
134.5 -43.5 106.70482663544271
-120.5 -5.5 107.64685089216917
-18.5 -25.5 107.64174905226096
113.5 -42.5 106.1929333924942
170.5 -65.5 104.15710202517567
-36.5 -59.5 97.84128261292116
-40.5 11.5 111.91141739319954
-128.5 -51.5 108.19161247495836
167.5 -66.5 101.97270270961911
-127.5 -12.5 105.83639467591794
-11.5 -37.5 107.51935562402927
-84.5 -49.5 105.29265646068862
77.5 -23.5 107.41495301142736
-8.5 -55.5 106.0853103167861
153.5 -56.5 108.50191217746959
-17.5 -11.5 107.54416404427789
-21.5 -35.5 108.32434919485577
-20.5 -47.5 103.64279029661668
-91.5 -17.5 107.3670836111022
83.5 -31.5 104.17608072566163
136.5 -56.5 102.28877346901662
-120.5 -0.5 106.19636599271554
-89.5 -22.5 107.45482674003692
83.5 -47.5 105.19992548299071
123.5 -42.5 105.9132246871
76.5 87.5 109.30019628152567
-127.5 -48.5 108.34500981574165
137.5 16.5 103.69124042469834
-71.5 -64.5 96.31591279027718
-8.5 -1.5 99.3401534119055
31.5 -50.5 91.01291124416608
-125.5 -34.5 105.50823918961319
-128.5 -23.5 102.57310510206297
135.5 -43.5 106.53851877261587
-73.5 -64.5 102.26084901968439
-100.5 -46.5 104.90945973358397
-95.5 14.5 106.13762113855175
-127.5 39.5 102.80965256895519
-28.5 57.5 99.82576812528242
98.5 -54.5 102.27660809274755
-8.5 -45.5 109.38624610240493
106.5 -55.5 102.2376772964987
-43.5 -56.5 102.05872763699516
-71.5 -57.5 104.57605658885137
-87.5 -32.5 103.06549842273056
-123.5 -10.5 108.62457822142649
-19.5 -33.5 107.74142601494849
3.5 38.5 88.81779469268555
79.5 -26.5 104.71744309618582
137.5 -56.5 105.26206145439703
-123.5 4.5 105.77850368207572
-128.5 -22.5 104.3890306824386
-128.5 -24.5 103.03649133379267
-82.5 -37.5 102.34279125404241
-12.5 -52.5 105.56802857866361
-42.5 -56.5 106.20860821226849
67.5 5.5 104.78978651729238
175.5 -21.5 99.66609827065128
179.5 -62.5 102.86911427019258
69.5 -15.5 98.71733158959334
-146.5 -52.5 107.5233381902395
-137.5 -60.5 100.60398075208239
-9.5 -14.5 102.09888795228545
-53.5 -55.5 104.34966448299052
140.5 -46.5 108.03893610479398
-127.5 -13.5 107.1929885263586
136.5 -43.5 106.46908753834292
140.5 14.5 100.92954694205142
-51.5 -54.5 106.34905097221228
-89.5 -27.5 104.13787366067521
137.5 17.5 102.50791937277592
92.5 86.5 104.19723427600348
126.5 -42.5 102.27466941497835
-10.5 -12.5 109.23504829306202
-93.5 -45.5 107.31655389229712
-79.5 -68.5 105.11207401153541
-128.5 -25.5 105.0529681354592
85.5 -48.5 105.02649278740797
127.5 -42.5 101.52604193766634
-120.5 -4.5 106.76656389257816
-25.5 42.5 105.18467417815599
-8.5 -28.5 105.02969657407517
-81.5 -51.5 103.10997789474739
-81.5 -68.5 102.59959381024848
-138.5 56.5 104.57315384837938
53.5 10.5 99.15436905963162
-87.5 -48.5 105.51801102418068
-90.5 -14.5 105.18926883774239
3.5 82.5 96.22372665573356
44.5 85.5 102.93788329792886
80.5 -27.5 106.36378942045044
72.5 -18.5 104.0537681281448
68.5 85.5 103.26288018753081
105.5 -41.5 106.81239842564406
50.5 14.5 101.78329544882774
47.5 13.5 114.74053374271533
11.5 83.5 95.23853749393642
-122.5 2.5 106.89310260813036
-36.5 8.5 106.50211711727397
137.5 -43.5 103.1811070254871
-49.5 17.5 102.24072224416523
-125.5 -35.5 105.63178632248037
138.5 -56.5 105.74189111072123
-42.5 19.5 101.41933810129831
-128.5 -26.5 107.20121071829422
119.5 16.5 93.11377373404619
35.5 -46.5 105.53223022976894
-19.5 -1.5 104.97995841089468
-90.5 -19.5 105.99846258297721
-85.5 -35.5 105.27084297071515
-126.5 -33.5 101.75535727199042
-39.5 55.5 104.5884296079378
89.5 -50.5 105.47135295494361
-69.5 -61.5 103.97363490590074
69.5 -16.5 105.36307337969914
-120.5 12.5 103.40073303940922
138.5 -43.5 96.51578506539907
157.5 -55.5 103.3561763596936
-82.5 -50.5 105.64710434257175
20.5 84.5 93.47623703003396
-124.5 6.5 105.80356972562907
-128.5 -27.5 107.73703392471698
17.5 -50.5 106.32103087068128
71.5 -43.5 107.27798745383268
-127.5 -14.5 107.04262255643378
124.5 -42.5 103.25599899076437
128.5 -56.5 103.28276065149618
110.5 -56.5 100.5323546174926
-162.5 -58.5 104.1158055668359
-24.5 44.5 98.06826107103103
153.5 -64.5 105.8509800862328
-86.5 -34.5 103.63176653368524
-76.5 -67.5 101.81309423374154
-100.5 -47.5 105.1837012971065
-19.5 71.5 112.62363121034527
-72.5 -56.5 103.81789872405912
-123.5 33.5 104.82752773651633
-58.5 -55.5 104.11393925462497
-18.5 -32.5 109.40799196858998
-123.5 -56.5 111.0216154049775
-17.5 -23.5 109.34107675325791
-48.5 22.5 110.74136772005319
-139.5 55.5 101.54018186340525
-39.5 54.5 97.92216240761906
-139.5 52.5 105.78712035414141
-139.5 -52.5 110.96059075597462
-128.5 -28.5 107.80445897966203
-8.5 -29.5 102.1383972708319
-158.5 -56.5 106.94425718660374
-42.5 -55.5 104.05605096660405
116.5 16.5 101.63756528688111
-86.5 -10.5 101.65795106684142
-18.5 -15.5 108.56055485815952
-123.5 -46.5 108.23509130963139
-137.5 42.5 103.01567090937804
-120.5 -3.5 107.00304586172986
176.5 -64.5 105.72669559635727
-83.5 18.5 86.23585316637762
-1.5 70.5 97.96210448199072
122.5 -42.5 105.93652269017218
-42.5 -58.5 103.75772423418663
101.5 -40.5 107.96986592205765
-88.5 -29.5 104.03359573886718
-10.5 -38.5 100.40834861810916
64.5 -23.5 108.62064785891353
139.5 -56.5 109.25865281195085
-137.5 43.5 105.61318843433607
-36.5 5.5 108.78772285652133
-125.5 -36.5 107.285348758994
64.5 -0.5 112.43800288072842
-128.5 -29.5 107.15758065371479
-18.5 -27.5 106.65520436832557
-76.5 -40.5 107.93306468819402
-84.5 -35.5 103.49285843939079
-16.5 -2.5 107.84908744341732
69.5 -33.5 108.06337966392915
-73.5 -66.5 103.79462179960235
-120.5 25.5 103.91886441545208
87.5 -49.5 105.10784648039363
-121.5 16.5 101.22684812503856
-12.5 84.5 103.09526409653812
-91.5 -16.5 107.54261777259289
-146.5 -65.5 97.22726558811102
-16.5 -22.5 109.33699201649775
-127.5 -15.5 105.33940419778922
-89.5 -21.5 107.31636538932395
-1.5 79.5 106.24114332149603
-7.5 -5.5 99.11897552308054
-147.5 -65.5 98.05266247375488
-9.5 -32.5 101.3745867789619
90.5 84.5 99.01176232660139
-128.5 -30.5 106.6593522483775
93.5 -53.5 103.74068256222459
-86.5 -9.5 104.5779340153301
-109.5 -56.5 102.02653623743214
5.5 71.5 97.26288363097048
-121.5 0.5 106.2579951593822
-13.5 67.5 101.96461084824155
137.5 18.5 97.51308815018793
-123.5 32.5 105.15713793307634
-95.5 -44.5 106.95934621259924
-148.5 -53.5 108.16970757127345
-90.5 11.5 106.63542803511098
-137.5 41.5 100.08233828419762
-94.5 13.5 108.46456764874775
-169.5 -68.5 95.79137463689611
140.5 15.5 102.93636607275371
141.5 -58.5 106.52156779506628
70.5 -17.5 104.84817068586717
-120.5 -2.5 106.6016562724201
97.5 -54.5 101.20604755440056
16.5 -50.5 105.90746086359319
65.5 -4.5 110.49471586787739
-128.5 -31.5 104.54413107388791
63.5 -22.5 108.04389937451123
-120.5 11.5 103.73712342811604
-20.5 62.5 100.14017387661902
-5.5 85.5 107.67372507142784
-81.5 -38.5 105.37375511799787
-121.5 -42.5 107.05490710187907
140.5 20.5 104.37246846368946
114.5 -42.5 106.22131832994373
-128.5 -49.5 107.82255424604554
36.5 87.5 127.81862385557334
137.5 19.5 97.9449362067384
165.5 -67.5 96.93537255979983
-124.5 -56.5 110.49586679741208
69.5 -10.5 98.60427626547646
127.5 -56.5 101.11349069750135
-87.5 -31.5 103.91315458349513
-18.5 -24.5 107.98563552882788
-66.5 -57.5 101.63337968285128
-101.5 -50.5 104.26366897293792
70.5 -36.5 106.06313206990593
-124.5 5.5 105.76311284874237
-127.5 -16.5 105.23374672244667
-125.5 -37.5 106.42487595923973
-21.5 -46.5 106.62272755223862
-121.5 -40.5 107.22706788529409
-78.5 -54.5 95.92143684518469
-105.5 -52.5 102.27720458607024
62.5 8.5 104.489776714952
-3.5 70.5 99.23637075366715
84.5 -35.5 108.8052591828391
-85.5 -49.5 101.25501116710525
109.5 -56.5 99.97042109656908
-10.5 -33.5 101.59265209087678
115.5 16.5 101.93059169255677
70.5 -13.5 99.36829559159008
-126.5 -11.5 107.18570230942183
-126.5 -47.5 107.93339340302911
5.5 86.5 108.566537449317
-124.5 37.5 102.06743305739015
-138.5 48.5 107.44125560494449
105.5 -55.5 101.18878866596526
-100.5 -43.5 105.50095627822905
94.5 -36.5 108.68422100603257
140.5 21.5 102.10336858652387
-10.5 -11.5 107.00814630437799
-121.5 -9.5 108.42607830871155
-86.5 -8.5 104.65388425384975
-89.5 -24.5 101.60561363889488
-90.5 -18.5 107.05742564041219
-65.5 -57.5 105.17827567059867
-121.5 17.5 99.60140542029687
-12.5 -59.5 91.57000734434111
-123.5 -38.5 107.74154436246033
-122.5 1.5 106.5356119247907
-23.5 68.5 103.00685010739853
137.5 22.5 104.86586163184087
-137.5 44.5 106.35075927814655
140.5 22.5 98.01071147716004
-122.5 -44.5 107.73529508505504
-120.5 -1.5 106.47191105376649
140.5 16.5 100.95385968270652
-86.5 -11.5 98.75341820288206
-17.5 -48.5 106.5177053742767
52.5 -38.5 96.57043442690279
63.5 -29.5 98.48187857612794
-11.5 -40.5 104.7805229568068
-7.5 72.5 103.28467828637395
-151.5 -65.5 99.00634088962565
99.5 -38.5 107.6639110744953
-89.5 -26.5 102.30144261062449
140.5 19.5 100.85529300788274
-14.5 -60.5 89.27459485028066
-144.5 -64.5 97.20676084573705
-123.5 27.5 101.21536250171869
-120.5 24.5 103.03184840328376
-10.5 -54.5 102.83442515120804
-121.5 15.5 102.40518095768878
-89.5 -47.5 99.02677067885178
-35.5 -63.5 105.79138398576312
-38.5 35.5 107.3064956536361
168.5 -66.5 100.877802349239
137.5 21.5 102.00415410779475
54.5 9.5 101.55293240423754
-128.5 -32.5 100.63561256370383
-80.5 -52.5 103.30889282087044
19.5 -54.5 103.96571369004711
-32.5 43.5 105.42459847788561
-42.5 -59.5 106.19272637537793
-120.5 18.5 102.72442858174483
-138.5 -61.5 99.68400013072764
136.5 26.5 104.41217648396642
-82.5 -36.5 101.85918886263788
112.5 -56.5 102.989027899317
71.5 -44.5 110.52541338105299
121.5 -42.5 106.51375483207742
-121.5 -41.5 106.40003721141355
-86.5 -33.5 102.02972383324173
-83.5 -35.5 102.27746361011263
82.5 -47.5 104.93939801958483
-127.5 -17.5 104.96624299924068
116.5 13.5 101.1134656134446
176.5 -20.5 103.98747213811873
-78.5 -39.5 105.74077072943393
-121.5 26.5 102.89984750696696
-154.5 -53.5 106.72336759852323
-128.5 -50.5 107.74730335296933
-0.5 -56.5 104.96630178922658
140.5 18.5 100.26597010140819
126.5 -56.5 100.91159943217248
-88.5 -13.5 100.47239844160613
-86.5 -7.5 103.12763290598073
137.5 20.5 103.02604671676677
-120.5 10.5 103.48571979487801
-100.5 -48.5 104.58307642886872
79.5 -46.5 106.99924032513685
-48.5 23.5 112.31776483886489
-89.5 -20.5 105.72322914289258
-60.5 -60.5 106.91178020264398
-69.5 -63.5 106.85290692781213
119.5 -42.5 106.16420736319326
-89.5 11.5 98.2066634217072
-45.5 -57.5 98.46428217724647
-91.5 -15.5 104.18222060678232
-7.5 -19.5 104.52625326480025
-121.5 -0.5 105.39431659923177
-127.5 -58.5 99.75511937399278
0.5 -50.5 99.59066873380151
-123.5 28.5 102.96605914069607
-61.5 -56.5 112.73468750989093
-122.5 -39.5 105.82588803547904
76.5 -46.5 100.21463382277517
-128.5 -21.5 106.23058713756438
-121.5 8.5 105.34358777039853
-53.5 -58.5 105.73280886181665
120.5 -42.5 106.58579352255362
-157.5 -55.5 106.52569154776819
140.5 17.5 100.02324856697332
97.5 -37.5 108.06003493359556
-123.5 3.5 106.22899242086106
15.5 -50.5 106.11581230858582
-88.5 -28.5 102.36570822819778
-137.5 40.5 93.5237755317428
-27.5 -57.5 90.3695919363613
90.5 -35.5 107.7927173247039
-88.5 -22.5 106.75709525173207
66.5 -30.5 107.66782170251186
-57.5 -59.5 108.05636583430294
146.5 -60.5 100.7523611384251
-1.5 73.5 105.79500644362625
-121.5 -8.5 107.92373018630256
-29.5 52.5 112.3594723923385
-28.5 4.5 106.43041919962718
-127.5 -18.5 106.2831987955521
140.5 13.5 88.64619106038572
-31.5 45.5 105.55598931076281
-91.5 12.5 99.4558447429743
-16.5 83.5 107.06722570180449
135.5 28.5 103.631732566734
147.5 -60.5 103.09714314737377
-76.5 -55.5 94.63909673944129
-94.5 -45.5 105.94172357907358
-168.5 -68.5 95.51570497317874
-12.5 -53.5 101.50715217879878
-66.5 -61.5 97.99522734454426
-7.5 -27.5 102.03606661454376
-86.5 -6.5 100.66211726995081
-24.5 1.5 124.19225381579764
-121.5 14.5 102.83254819794378
128.5 -42.5 102.87902855349688
-85.5 -3.5 103.06271617412176
59.5 -32.5 96.315491302321
-172.5 -60.5 103.0450200011541
-20.5 -34.5 107.57731641799379
139.5 -44.5 101.08625930763232
77.5 87.5 108.59078754807561
68.5 -32.5 107.57060346574792
111.5 -56.5 102.61004121148876
-124.5 -10.5 107.86817260546403
65.5 -29.5 106.52744740468398
135.5 41.5 102.23368259782757
117.5 84.5 108.89705388836505
-105.5 -54.5 100.2972682927681
61.5 -27.5 107.94443516775733
156.5 -55.5 105.97426330005717
-123.5 29.5 103.42108491759095
-137.5 47.5 108.79402899815226
-90.5 -17.5 106.87835828723397
172.5 -64.5 98.57514969158592
56.5 -35.5 88.07480186628531
-75.5 -40.5 103.49373032878219
69.5 -35.5 104.3304540369164
-120.5 9.5 103.74502765770484
-10.5 -43.5 108.76893948650262
10.5 -52.5 115.39823176341999
83.5 -32.5 98.19458436846946
-88.5 -23.5 103.03528000876635
71.5 -38.5 105.89923693637701
-87.5 -12.5 96.8953872351686
45.5 85.5 102.04271447945666
4.5 -52.5 107.29418747283154
-124.5 4.5 105.44231229663748
-13.5 -51.5 104.9252501777548
-87.5 -30.5 103.80606223494469
164.5 -67.5 97.08014503612931
-139.5 51.5 104.50270334045959
-123.5 31.5 104.01027573922121
-24.5 66.5 108.20224289351059
-120.5 23.5 102.48951449969648
-140.5 54.5 99.0476958621713
81.5 -47.5 105.01845995431995
-89.5 -25.5 100.83147966054689
70.5 -5.5 97.34230701650873
-96.5 -43.5 107.38747451483317
-176.5 -61.5 102.97661324284549
-129.5 -23.5 101.37986890532338
148.5 -60.5 108.44592583049703
-121.5 -7.5 108.10335879851162
-22.5 69.5 119.26679083417986
-32.5 34.5 95.02562996206818
-91.5 -46.5 103.82906705104767
-139.5 50.5 102.43346300398832
101.5 -55.5 100.10351199984463
-47.5 27.5 111.83439923621563
-81.5 -37.5 101.54408958633218
-125.5 -57.5 101.24461811815232
-127.5 -19.5 106.54041363541435
104.5 -55.5 101.4541516889793
-129.5 -22.5 100.98288731194405
73.5 -19.5 104.19296435877212
-76.5 -66.5 98.6887160108203
-86.5 -5.5 100.69190158376843
64.5 -1.5 107.54834834466999
-129.5 -24.5 102.79707563997843
169.5 -21.5 104.90530562502433
-140.5 53.5 102.72490227243627
72.5 -45.5 108.5931509714235
134.5 30.5 103.52843580943097
106.5 -41.5 106.71408794687478
-135.5 -59.5 101.31014718386572
-126.5 -34.5 101.57443202115427
-104.5 -51.5 101.73461186629001
-89.5 -19.5 104.11590601803773
-148.5 -65.5 98.37862930750596
-123.5 2.5 106.22899242086106
-87.5 10.5 105.90165355094172
-74.5 -65.5 103.91629373690446
48.5 -36.5 107.37230809371736
143.5 -47.5 108.70234052615342
-121.5 13.5 103.8672188038092
-129.5 -25.5 102.88010216036595
-86.5 -32.5 100.63973362108618
-132.5 -52.5 107.0802138069589
-17.5 -19.5 107.08450119699279
65.5 -9.5 111.26008174026245
171.5 -65.5 102.384298934058
1.5 77.5 102.3640527917985
96.5 -54.5 100.60517330100689
-43.5 -55.5 102.6205143254319
177.5 -19.5 106.995230145628
102.5 -40.5 106.89075004914135
-121.5 -6.5 106.90481929019869
88.5 -50.5 102.46463259047732
-7.5 -4.5 99.88229947417102
166.5 -67.5 96.27772604576461
155.5 -55.5 107.4966005918639
35.5 87.5 124.99305785318491
93.5 86.5 103.51256176973784
72.5 -40.5 105.24356624063108
-129.5 -26.5 104.52820307396425
-86.5 -4.5 99.40624472623364
-137.5 45.5 106.2503653074357
-29.5 63.5 109.53301747896657
-39.5 56.5 102.29479719260344
-42.5 33.5 106.02792406357368
84.5 -48.5 102.3932200877367
-38.5 10.5 107.17255869434628
-142.5 -63.5 98.44109940639048
-59.5 -55.5 105.0321217193536
115.5 -56.5 102.61335494053236
83.5 -30.5 106.58181749766253
-127.5 -33.5 100.80566537247563
113.5 -56.5 103.35204070124935
137.5 24.5 106.1504614121908
-71.5 -59.5 98.41039704972788
-85.5 -10.5 95.4420781852169
87.5 -35.5 107.46605593239539
-55.5 -55.5 105.60278395824128
90.5 -51.5 105.43886371369015
-45.5 30.5 110.81122148720019
-127.5 -20.5 106.96717247177797
-126.5 -35.5 101.90596852520576
-123.5 34.5 105.12108566206463
100.5 -55.5 99.93740088873352
-158.5 -66.5 96.71370713972281
-88.5 -21.5 105.45371330206672
68.5 4.5 99.99580753498054
55.5 7.5 94.38542875613157
4.5 86.5 108.49790319644526
162.5 -61.5 108.31583269216856
-129.5 -27.5 105.15592967814563
108.5 85.5 107.66039043698882
-120.5 22.5 102.41426287631988
-85.5 -34.5 102.3123092566184
-41.5 13.5 99.53453315415399
89.5 84.5 98.69249076712366
-164.5 -59.5 105.4117936277292
-139.5 49.5 103.37163152250683
72.5 -41.5 105.57008547111323
-41.5 -57.5 104.36248911194745
-82.5 -35.5 100.28274271291113
-122.5 0.5 106.0259902025154
-123.5 30.5 103.1325019942538
-121.5 -5.5 105.63091675789694
-56.5 -55.5 108.6067263052598
-164.5 -67.5 96.81822380638945
-4.5 -46.5 104.05706444852986
108.5 -56.5 99.27906672668313
69.5 1.5 109.45937907817056
-160.5 -57.5 103.47324328684337
-125.5 6.5 105.11495337104188
-90.5 -16.5 105.36020424445765
64.5 -11.5 110.32370788572544
-137.5 46.5 106.97117300374981
116.5 -56.5 96.51280889115733
-88.5 -27.5 102.19259779199315
115.5 -42.5 104.37675733861252
-23.5 -42.5 107.07427572134195
-129.5 -28.5 106.64841997828775
-75.5 -67.5 101.99633613699193
117.5 -56.5 96.47106389115731
-114.5 -57.5 103.4982251414673
-18.5 -16.5 108.28437633356039
66.5 -31.5 105.82613479010803
-128.5 -12.5 101.46743410240634
136.5 13.5 103.2725584678911
67.5 85.5 102.95329731037212
169.5 -66.5 102.43349713263433
114.5 -56.5 103.05202789931698
-93.5 13.5 104.90316233729506
69.5 -34.5 106.90670140040348
9.5 -54.5 96.56961552649486
-121.5 12.5 104.3813503088071
-22.5 -59.5 104.45036370715562
-156.5 -54.5 106.1561665672842
-42.5 18.5 96.83302713401636
7.5 43.5 81.70888851333345
92.5 -53.5 102.35018387474766
-32.5 61.5 103.40144427189361
-129.5 -29.5 106.43925965378352
-111.5 -57.5 97.68506095270641
-84.5 -69.5 99.94793533452271
-124.5 -38.5 105.71363809395571
140.5 23.5 96.76604726863518
28.5 -53.5 93.42641025452224
-44.5 31.5 108.49076478452461
-85.5 -9.5 97.73249663158425
-139.5 -62.5 100.1297857397977
21.5 84.5 91.9689575780307
-126.5 -36.5 105.24861782211417
-123.5 1.5 105.78131827688911
-123.5 -45.5 106.9067157128224
86.5 -35.5 108.27923511304036
-121.5 -4.5 105.78319754933892
-174.5 -60.5 102.63891746481877
-80.5 -38.5 103.89433371642633
-88.5 11.5 95.77981553376414
44.5 -38.5 105.34624501589674
-18.5 -17.5 107.86604523525978
90.5 -52.5 102.91021322582145
-33.5 39.5 109.82276111740275
-105.5 -55.5 98.89823229196769
-173.5 -60.5 102.7053369371618
-100.5 -49.5 102.57522945300272
-54.5 -55.5 105.05847279391921
12.5 72.5 80.69645536721985
82.5 -29.5 107.29989439703671
-34.5 2.5 102.37893024784476
-140.5 52.5 103.48398003974893
86.5 -49.5 103.22724001854768
129.5 -42.5 95.73435354328166
-170.5 -60.5 104.40955322668046
25.5 -54.5 92.77935550946813
-87.5 -29.5 103.29272704325918
75.5 -21.5 104.42465084480216
-89.5 -18.5 103.69428313216542
34.5 -47.5 94.8434857815259
-129.5 -30.5 104.8295618334709
-26.5 65.5 107.53909422417156
5.5 79.5 108.3097225153248
-73.5 -56.5 94.49038895508116
-120.5 21.5 102.15129462235163
-41.5 25.5 99.14767030488235
-56.5 -59.5 109.85900262769472
-79.5 -67.5 102.05379796468974
107.5 -41.5 104.65309707287757
-128.5 -13.5 102.12500406706508
118.5 -42.5 105.77014976378783
3.5 74.5 103.05221960782104
-109.5 -57.5 89.55483423892412
-110.5 -57.5 94.68185503602163
-31.5 48.5 103.09043612882265
136.5 14.5 91.18837192035375
-120.5 20.5 102.41989630302389
124.5 81.5 104.48569942709938
-122.5 26.5 101.55956780474898
-122.5 -0.5 103.73556704528269
95.5 -36.5 108.38779024626092
-40.5 27.5 98.0689364652808
-44.5 10.5 119.10538544201728
-121.5 -3.5 104.99461362492347
64.5 -29.5 99.0285170758646
117.5 -42.5 103.512564331227
50.5 -39.5 96.78055837100852
117.5 13.5 100.19629114778127
-129.5 -31.5 101.31367666401142
-105.5 -53.5 101.39053674293298
1.5 76.5 98.95840831403478
71.5 -39.5 105.50275927478464
136.5 15.5 89.56815731139619
-10.5 -42.5 107.01185960728859
30.5 -51.5 95.00974538946848
103.5 -55.5 101.01345724453483
-87.5 -22.5 102.52539627860766
-126.5 -37.5 103.17543738858045
125.5 -56.5 95.11108780381002
-138.5 42.5 97.31816578587186
-86.5 -31.5 100.72191548607474
-85.5 -8.5 102.44368683968018
-22.5 -39.5 107.80002299376805
-23.5 46.5 95.96047818152269
-14.5 -50.5 105.23108515392923
-11.5 -36.5 107.76785163127666
-125.5 5.5 104.22545657006133
-121.5 11.5 104.7205874703384
-171.5 -60.5 104.4519972778949
83.5 -34.5 104.75149392686102
-52.5 -54.5 96.94541740684214
-122.5 16.5 99.49941601782965
-55.5 -59.5 110.72913035749956
-139.5 56.5 104.1992431553425
136.5 12.5 100.12473262409607
-88.5 -20.5 104.14903990304161
69.5 -8.5 97.3148832337898
-86.5 10.5 99.64097954807896
-122.5 -43.5 106.677439931851
141.5 -46.5 108.07561273883071
-127.5 -47.5 106.89231508705856
-121.5 25.5 102.63620896913301
124.5 -56.5 94.62348363714337
-2.5 -57.5 95.56384809569063
-42.5 23.5 106.39206121006008
-139.5 57.5 103.18940359710508
-9.5 -44.5 108.06833317301533
91.5 -35.5 107.26571421543734
137.5 23.5 104.20121945423858
100.5 -38.5 100.97329120056456
-121.5 -2.5 105.10419225266799
-67.5 -62.5 94.08699872225179
-81.5 -36.5 99.89895407412008
138.5 30.5 97.17610150982381
12.5 83.5 92.44594470185106
-138.5 43.5 101.60921483286967
-128.5 -14.5 103.6633084321337
26.5 -54.5 90.64223735237152
-136.5 -60.5 99.83773931463337
-46.5 29.5 111.0314143840577
111.5 -41.5 102.90431126325478
-94.5 14.5 104.21902386969266
118.5 13.5 96.30231360482898
-85.5 -33.5 100.20643441480574
120.5 -56.5 93.36492887003565
-90.5 -15.5 102.95173119376496
-138.5 41.5 96.64415212423222
123.5 -56.5 93.95621037623759
36.5 -46.5 96.34041051807317
-121.5 -1.5 105.13461362492347
-139.5 48.5 101.74539500402844
-129.5 -51.5 107.26420732475977
178.5 -62.5 103.26668964764285
-6.5 85.5 107.17926798778444
-23.5 47.5 97.63603427463828
-120.5 19.5 103.11463602365882
-8.5 -25.5 104.8855356734821
-44.5 -57.5 97.80363926360036
-140.5 55.5 98.14612896345878
-129.5 -32.5 99.9304665999681
158.5 -55.5 96.66737162583247
23.5 -51.5 104.87162005148657
-108.5 -56.5 99.61586023647355
70.5 -37.5 105.66435341250266
-92.5 -46.5 103.50082771507965
98.5 -37.5 106.66139338001898
1.5 -51.5 98.09980160314377
-86.5 -49.5 100.12915678949251
130.5 -42.5 95.84935354328165
65.5 -5.5 109.58753585539738
-85.5 -7.5 99.90482212969181
-19.5 -14.5 107.61726949198632
119.5 13.5 90.24604492780153
121.5 -56.5 93.85362525718998
-124.5 3.5 105.24117289015022
159.5 -59.5 102.36191334475585
-36.5 4.5 107.26207752298677
-39.5 53.5 92.37957715175989
-52.5 -58.5 105.22825344273699
-128.5 -15.5 103.4973150569106
-125.5 38.5 102.05881094732504
-121.5 10.5 104.1816880655765
154.5 -55.5 107.20952924440161
-18.5 -12.5 108.78653800408385
4.5 82.5 88.12357281740519
78.5 87.5 107.89102353903036
163.5 -67.5 97.86791526294456
-129.5 -21.5 103.73802096473005
-138.5 40.5 89.33904681074696
-123.5 -39.5 104.14886610733778
157.5 -66.5 110.98729685822549
-83.5 -50.5 101.66644926630607
-66.5 -56.5 98.92034597251286
-89.5 -17.5 104.05639424327651
-59.5 -60.5 109.00457538749396
79.5 -25.5 100.3010361922843
-122.5 15.5 100.42383956304431
170.5 -23.5 98.39193619982466
-88.5 -26.5 99.14585835381602
140.5 -57.5 106.81008148917492
-17.5 -20.5 107.82222048940453
-145.5 -65.5 95.36148848788427
-90.5 12.5 98.77678852789072
-70.5 -62.5 105.5215550859082
-77.5 -39.5 102.79921953778147
-8.5 -0.5 92.04363380935007
-14.5 65.5 102.48627692877804
-0.5 70.5 93.82554246838691
-90.5 -47.5 98.58340689911512
-127.5 -11.5 101.80308178852307
119.5 -56.5 92.10552514544729
122.5 -56.5 94.05503775718996
105.5 83.5 92.33697127897136
-3.5 -47.5 108.16092055700292
-147.5 -52.5 107.27166259875303
-124.5 27.5 98.05173953890653
160.5 -60.5 102.88063748363734
-128.5 -48.5 106.87934534242791
95.5 -54.5 100.18509024302432
99.5 -55.5 98.78456008257143
46.5 85.5 101.41942673193192
-34.5 -63.5 104.5085240333641
169.5 -22.5 100.6424522112871
-130.5 -23.5 98.34345961359669
-23.5 -41.5 106.35732773058277
-92.5 13.5 100.29775315817186
-16.5 -3.5 106.91344884820278
-36.5 58.5 101.83793642937809
-125.5 4.5 103.74641162645231
-153.5 -53.5 105.90232767095553
139.5 42.5 91.41835492508102
142.5 -59.5 100.75385532846401
-124.5 32.5 102.34220400682796
-150.5 -65.5 97.33340501660975
-79.5 -54.5 93.92571470685863
-7.5 -21.5 99.17383385717612
-128.5 39.5 101.8433031467487
78.5 -23.5 99.56652311372635
34.5 87.5 124.2471192566937
85.5 -35.5 107.96138382152648
-128.5 -16.5 102.40695976845473
-130.5 -22.5 97.70679097642792
-87.5 -28.5 100.42017913291083
-82.5 -68.5 101.63923593473388
31.5 -48.5 109.26603262832677
167.5 -67.5 95.50832261419971
-149.5 -65.5 96.51981184041934
-23.5 -43.5 107.09273281285863
-26.5 58.5 94.84298072362486
-88.5 -19.5 101.639039272542
-159.5 -56.5 105.2967168611858
3.5 86.5 108.71860419581868
-130.5 -24.5 99.60891458133267
-65.5 -61.5 98.504720941982
-88.5 -48.5 98.60524295066308
-85.5 -6.5 98.91238356793895
-72.5 -63.5 100.96810696862617
103.5 -40.5 104.55742774363968
108.5 -41.5 104.18205569075445
118.5 -56.5 94.48650997443615
-13.5 84.5 103.06646874542741
-122.5 -40.5 99.91248045652837
-49.5 18.5 102.05082824395379
149.5 -53.5 106.53754858062712
64.5 -24.5 107.91516719033223
-8.5 -22.5 103.58686165416471
-80.5 -37.5 100.07951041689955
-121.5 24.5 99.80926595950059
-11.5 -35.5 105.94090583763703
-82.5 -2.5 102.61781925915575
-23.5 -37.5 105.883265170472
136.5 16.5 88.45800350535934
116.5 -42.5 103.27271963280705
-121.5 9.5 104.156205187898
-155.5 -53.5 106.04463011303058
102.5 -55.5 98.33717491043548
-124.5 33.5 102.54796556395836
-19.5 -13.5 107.53259659990705
-124.5 28.5 99.15189214457554
-13.5 -52.5 100.85717992544943
-122.5 17.5 97.6362456051369
80.5 -47.5 102.22960953406877
-163.5 -58.5 102.52542998249204
-62.5 -56.5 105.551421971287
-22.5 -40.5 107.33897741243172
-124.5 2.5 104.75920571894612
-11.5 68.5 99.35214418389363
131.5 -42.5 94.47013620633378
-24.5 -61.5 91.84432797566785
25.5 -51.5 107.97067452130835
88.5 -35.5 107.43443652850908
-86.5 -30.5 99.78870514564113
-25.5 50.5 100.8296148896204
-20.5 0.5 95.45985512835271
-130.5 -25.5 101.09299970825754
