93.5 -23.5 56.46098776078965
-155.5 -39.5 56.29917314020973
-30.5 -19.5 57.798554405236544
91.5 12.5 60.74751695305128
96.5 -20.5 56.70073024169447
10.5 -46.5 58.75634479158434
176.5 77.5 72.68181463686261
71.5 16.5 58.017673962954824
108.5 -63.5 57.604561731182955
38.5 -36.5 56.52703274793428
-147.5 -7.5 55.458793986285734
-150.5 9.5 56.712602054416124
-120.5 -70.5 57.04778181202116
-153.5 -38.5 56.03837698911395
-105.5 -67.5 57.893968885496086
20.5 -41.5 55.901449077291154
-116.5 -69.5 57.70003743155677
-41.5 41.5 56.91700879766267
-166.5 -43.5 56.623730190526565
86.5 3.5 59.46640922378393
3.5 -15.5 55.95535532431941
-148.5 -36.5 56.171386247269986
-147.5 -2.5 55.663268644223706
164.5 -41.5 60.310634080585295
-164.5 -42.5 56.39001063150911
91.5 -25.5 56.84390823187116
110.5 -35.5 61.76315332396539
-148.5 -33.5 56.78497626865196
-162.5 -41.5 56.05086827115011
37.5 -36.5 56.56056276641837
151.5 -44.5 60.73805300080454
-112.5 -68.5 57.99893775662856
-27.5 9.5 56.836320377304354
-53.5 32.5 57.51871384221832
49.5 -27.5 56.51892970853032
-33.5 13.5 53.164690471846505
-43.5 1.5 55.796886097253065
-31.5 -25.5 57.352556611754615
-174.5 -74.5 71.02416877546
109.5 -35.5 59.622010368431084
-150.5 8.5 56.292756262138376
49.5 -54.5 56.64216275538022
-157.5 27.5 57.53178561431382
129.5 -63.5 57.96360535938149
-123.5 -71.5 57.81325954675565
-50.5 34.5 56.65639723072199
-34.5 -1.5 59.36999919765108
-32.5 -66.5 57.85871435606743
92.5 -25.5 57.014165331935516
165.5 -41.5 58.26198636949893
4.5 -42.5 57.680449162742896
-31.5 -14.5 57.95628514219582
47.5 -50.5 60.22768928551418
49.5 -22.5 57.76905401404386
-150.5 -27.5 58.150320843491244
127.5 11.5 61.19000820387195
-18.5 5.5 57.12729425935574
-28.5 -6.5 57.70112510111637
-167.5 44.5 58.72990807652529
-39.5 -45.5 56.84190732383978
-170.5 -44.5 56.719448108532916
-154.5 36.5 57.35578216145301
-39.5 -46.5 57.66875128407839
-16.5 3.5 58.228849772193016
3.5 -39.5 55.58282688099565
77.5 4.5 58.34792592586779
5.5 -43.5 57.6740683166574
-148.5 1.5 55.853703990507604
-30.5 28.5 55.87829084322805
-151.5 -17.5 59.40897498798252
-127.5 -71.5 57.53430148247168
85.5 2.5 59.95698067968415
-136.5 -72.5 58.046079704347676
100.5 -8.5 58.715135213627775
3.5 -40.5 56.023134476168295
-38.5 -37.5 57.83070917375212
-56.5 29.5 57.16424290385462
-154.5 -74.5 56.791139849058574
1.5 -6.5 57.59324103120901
14.5 -60.5 55.087263183060685
47.5 -51.5 60.714412193715006
9.5 -59.5 56.75584446583386
-59.5 21.5 58.127319474465466
-43.5 38.5 56.51067740774342
-98.5 -65.5 57.996374926753695
-30.5 -20.5 57.490656423064884
-154.5 21.5 56.73059879251552
151.5 -43.5 61.78970063130507
-146.5 -12.5 58.84828041758043
-157.5 26.5 59.172624883101136
58.5 -53.5 57.94634525029723
-167.5 43.5 57.48945060466768
76.5 6.5 57.170417748035625
-150.5 7.5 56.15809476975387
81.5 -1.5 62.532943845859364
-32.5 12.5 53.02271928801585
50.5 -21.5 62.16062834942922
-119.5 -70.5 56.821856202716106
-38.5 -38.5 57.268652858376775
5.5 -60.5 55.27671254237843
-30.5 -2.5 60.31224503256826
48.5 -53.5 57.84713649375333
-33.5 17.5 56.23654431268404
-162.5 -39.5 55.807704881889556
-98.5 -64.5 57.936356481089554
8.5 -59.5 56.63912092271032
1.5 -0.5 58.198304957544124
-34.5 -32.5 56.39453353816588
-25.5 8.5 57.41901466504553
-98.5 -63.5 57.723343642892516
45.5 -49.5 59.879283405244294
-27.5 31.5 58.287870971988134
-115.5 -69.5 57.59241850850918
-31.5 26.5 53.853170596715515
-29.5 -9.5 58.71239333620341
117.5 -37.5 61.53190066789142
1.5 -33.5 55.40210159361682
49.5 -56.5 56.24869508617644
-108.5 -68.5 57.850219108785595
51.5 -57.5 56.42111233811273
-101.5 -66.5 58.17883295486852
128.5 -63.5 58.12292979331252
-38.5 -39.5 56.90231142647233
74.5 11.5 57.6657323759219
-60.5 18.5 55.590652683455765
-179.5 -45.5 56.3099242104605
-1.5 -62.5 56.341148565823104
-27.5 -4.5 58.01209974207779
166.5 -39.5 61.35944008340044
1.5 2.5 58.09921471376154
-167.5 42.5 57.68968710807301
102.5 -62.5 57.61163744225158
-124.5 -71.5 57.87006913827717
91.5 -24.5 57.145953280993055
2.5 -2.5 56.924195340991545
-51.5 54.5 56.75057846352177
21.5 -43.5 57.7194618426487
165.5 -40.5 59.53645687839705
-45.5 4.5 55.071403387563166
-157.5 25.5 58.72851793409764
-155.5 21.5 60.371169637370265
150.5 -42.5 61.13850935868177
-37.5 -34.5 57.01105625301138
-31.5 -54.5 68.16448452547834
-150.5 -28.5 57.99234045491374
129.5 5.5 69.05833206871436
-153.5 21.5 57.87076889664019
-104.5 -67.5 57.29287261101835
32.5 -53.5 56.59852361484452
107.5 -63.5 56.142468413284334
-154.5 29.5 57.757385552924504
-47.5 36.5 56.008512870219946
-111.5 -68.5 57.15695802090595
1.5 -5.5 56.59612934103822
-21.5 36.5 61.83302234022438
128.5 10.5 57.31513474378604
2.5 -35.5 55.42178148638769
-155.5 37.5 57.19512284855058
73.5 13.5 58.300323501873415
46.5 -49.5 59.13684724393906
-147.5 -3.5 56.371147273219115
-52.5 33.5 57.920622424739896
-150.5 6.5 55.94367482509179
-36.5 -33.5 56.71109514319597
9.5 -43.5 57.243774338489956
-32.5 -30.5 55.5636577265374
-14.5 -64.5 58.07248543226427
-39.5 -47.5 56.62267510157558
-157.5 28.5 57.30938264348017
26.5 -44.5 55.80897790046146
72.5 15.5 55.090300662234995
-38.5 -40.5 56.81369281507264
-147.5 -8.5 55.56752337813487
-15.5 49.5 54.78157950474381
-31.5 -15.5 58.27781196640828
4.5 -25.5 53.438024697537884
-146.5 -73.5 55.267199656595864
-156.5 23.5 58.017083301161136
-38.5 -41.5 55.28761300989329
-150.5 -25.5 58.34587253875523
-39.5 -44.5 55.29218552789287
92.5 -24.5 56.04872366639886
-126.5 -71.5 56.51677170106198
-151.5 -37.5 54.24300784645151
-167.5 41.5 57.22319010607576
20.5 -40.5 53.73322654157236
-107.5 -68.5 56.39045525957862
174.5 44.5 57.13307091235275
60.5 -53.5 55.346397041481815
-3.5 -63.5 56.023595616062266
-31.5 -66.5 57.04287535598112
127.5 24.5 59.11059852883345
127.5 -63.5 56.92955911140584
-30.5 -21.5 55.741220771586484
-10.5 2.5 55.79753373660873
-60.5 17.5 48.2932594362053
-58.5 24.5 58.15223731021286
44.5 -50.5 58.25096457860014
-38.5 -36.5 56.09449844935496
-153.5 -74.5 58.076116888983805
-150.5 -21.5 58.739095854990794
-150.5 -22.5 58.37538439672654
-157.5 24.5 53.87876259348981
77.5 3.5 55.129637552577584
-17.5 39.5 57.66379201272705
129.5 9.5 55.86870169045414
-175.5 -74.5 69.07001166390597
48.5 -52.5 56.548798751112145
-44.5 51.5 54.834261749548475
-150.5 21.5 56.46930605284697
-167.5 40.5 56.299567129547704
-32.5 21.5 55.70441666060279
99.5 -10.5 58.163113867135564
65.5 -52.5 59.498127208217305
-39.5 -0.5 53.77771979582979
-59.5 22.5 58.47663960914007
-32.5 -50.5 56.618143210373155
34.5 -53.5 55.83772680995171
-114.5 -69.5 56.080554992862865
-32.5 -28.5 55.836276127550434
-52.5 9.5 54.5432143867275
-172.5 44.5 57.30548067219923
-135.5 -72.5 57.68731715972046
77.5 5.5 56.501575625511784
-39.5 -66.5 56.831738615731325
1.5 -61.5 55.21204257638861
-118.5 -70.5 55.81922948009524
-21.5 -65.5 57.288777559847375
1.5 -10.5 55.79530316539785
-152.5 35.5 56.686395864577996
-122.5 -71.5 56.023014676328536
-30.5 -23.5 55.89146333482066
-172.5 -45.5 55.84413262385287
48.5 -54.5 54.73930130978721
-167.5 39.5 56.271196127581625
-31.5 -29.5 56.66752765644837
-33.5 -31.5 54.16574905524248
-149.5 -13.5 57.620218384634306
-150.5 5.5 55.22646325788323
-148.5 0.5 55.280349612278805
-42.5 39.5 54.1842164635133
-147.5 -4.5 55.237675402521745
-150.5 20.5 56.50852017152294
-150.5 19.5 56.5411245136556
126.5 -63.5 56.094410808604444
111.5 -63.5 55.72141871955183
3.5 -38.5 54.83780120657505
89.5 8.5 56.28865286333923
176.5 83.5 54.49771290141027
-24.5 33.5 60.8588790797665
0.5 2.5 56.561355370845405
132.5 22.5 58.12523907517574
-28.5 -7.5 56.1338484664099
-150.5 18.5 56.34933578191979
10.5 -48.5 57.69764765373708
44.5 -33.5 54.632302222890985
136.5 21.5 60.72040948929789
-48.5 7.5 52.21562501748258
93.5 16.5 53.383112362137936
103.5 -33.5 54.44570080596819
-145.5 -73.5 57.113333089341175
-152.5 34.5 56.65227737684077
-156.5 22.5 58.909433653798416
-97.5 -63.5 55.93114289218893
-151.5 -14.5 57.249247406326624
-150.5 -26.5 57.7262532875046
2.5 -28.5 54.28629535718881
178.5 87.5 56.69348803783705
13.5 -60.5 54.59170799104575
-152.5 31.5 56.282907100323115
2.5 -12.5 54.92673821989824
-125.5 -71.5 56.506108188938114
93.5 -25.5 55.924869101057766
3.5 -37.5 54.88443760533511
-33.5 16.5 54.665060639899096
-151.5 13.5 57.11515558912646
-150.5 17.5 56.746470733408366
-175.5 43.5 56.25889037270355
22.5 -43.5 55.80426839682134
3.5 -27.5 54.85112090136823
49.5 -55.5 55.561782345093235
-110.5 -68.5 56.15004968481731
-16.5 42.5 55.72297637566038
-33.5 14.5 54.34764574383491
1.5 -32.5 55.135499820296666
40.5 -34.5 56.469447642983724
-162.5 -40.5 54.668365277348286
-93.5 -62.5 56.09978751758211
-151.5 -18.5 56.970853700523286
-100.5 -66.5 56.50459680967686
-151.5 12.5 55.989070140327094
-152.5 30.5 56.739349745596826
84.5 -1.5 57.89707333886798
-152.5 33.5 56.50455193061537
-103.5 -67.5 56.28334027908714
125.5 -63.5 55.98222246369241
-167.5 38.5 56.077676457968174
66.5 -52.5 58.981535231959235
50.5 -19.5 56.93009203407643
95.5 -27.5 54.869951684543
-150.5 16.5 56.88101273878843
65.5 21.5 55.843987705000565
-28.5 30.5 55.09770332252868
96.5 -21.5 55.357923694081656
63.5 22.5 55.69410246427865
93.5 -24.5 55.82884677817509
-152.5 32.5 56.01323050265711
-147.5 -9.5 54.69265591537416
83.5 -2.5 58.86983495897578
-150.5 14.5 56.52659710142204
62.5 -52.5 58.06311442079976
43.5 -33.5 54.33797633310747
-20.5 7.5 55.05090552108598
-40.5 44.5 55.156408748075016
-150.5 15.5 57.023062048455074
28.5 -45.5 54.69913670433303
59.5 -53.5 55.74364629540045
-30.5 -12.5 56.49841551990806
-152.5 -74.5 58.81868806631682
-155.5 36.5 56.22803679042486
80.5 -0.5 58.24702650448924
27.5 -45.5 54.15066141899067
1.5 -31.5 55.24134853900618
47.5 -26.5 55.03702699455355
21.5 -42.5 55.45559676313951
4.5 -16.5 54.37865684477383
3.5 -14.5 54.24865312129005
-150.5 4.5 56.155700228826234
-5.5 2.5 57.3106269866495
-32.5 22.5 55.4094335480544
-36.5 -48.5 55.93070270164195
49.5 -28.5 55.27241788409437
-91.5 -65.5 56.401142043643404
1.5 -4.5 55.59400032682815
-55.5 12.5 56.02345755150636
35.5 -38.5 56.038480774519165
-152.5 21.5 57.352840367900335
-144.5 -73.5 67.0056187478465
-31.5 -16.5 56.74839757210161
23.5 -43.5 56.00982611563545
1.5 -8.5 55.94931691345271
-94.5 -62.5 56.10798584126174
-30.5 -66.5 57.54741204015351
178.5 42.5 55.96293515926888
-113.5 -69.5 55.93102289027712
33.5 -53.5 56.36004358995693
-121.5 -71.5 54.19645380131279
124.5 -63.5 55.2721019949704
-16.5 4.5 55.37806571014812
-109.5 -68.5 56.19606833176368
-50.5 52.5 55.12869294341207
-96.5 -63.5 56.12681167872996
-117.5 -70.5 55.42404480232094
-35.5 -1.5 58.389988460682126
67.5 -51.5 57.19108749701079
-57.5 83.5 53.78053114933407
76.5 7.5 53.05505565874452
-52.5 54.5 54.82758465775883
-97.5 -64.5 56.33621152394372
130.5 8.5 57.121227074458254
-60.5 19.5 57.90611737608009
47.5 -30.5 55.39839416660794
-147.5 -12.5 58.66809481678026
10.5 -47.5 58.58278968692409
-147.5 -10.5 56.15239754524812
-167.5 37.5 56.053724487641446
-176.5 -74.5 79.97611455424143
-38.5 -35.5 56.819055427557984
123.5 -36.5 57.44033010204199
-30.5 -22.5 55.897768053746944
46.5 -51.5 56.89819927257019
-31.5 -24.5 56.270971999072074
-57.5 28.5 55.798153350924125
-151.5 11.5 55.90282404783119
-90.5 -63.5 56.09319135161877
106.5 -63.5 55.89946636259641
-147.5 -11.5 57.6207307842896
99.5 -11.5 58.14560803516896
-134.5 -72.5 61.16615311079594
-151.5 -23.5 57.93641381261218
-148.5 -0.5 55.27254607601571
-39.5 -43.5 55.563325910012466
-151.5 21.5 57.09545509496886
48.5 -27.5 56.08719292274112
1.5 -30.5 55.09155535429556
98.5 -19.5 56.31066361496631
-40.5 -66.5 56.89967133918326
82.5 -1.5 58.67628222807027
2.5 1.5 56.44374599211937
-28.5 -8.5 56.10338784588649
-40.5 0.5 55.440653174035425
5.5 -23.5 53.070843755293396
33.5 -41.5 57.29036653165001
50.5 -57.5 55.07420636082383
-151.5 -22.5 57.37868128313223
-151.5 -19.5 57.595797496845556
-57.5 14.5 55.55773920519109
-149.5 2.5 55.436021996345495
-22.5 35.5 60.093144372860735
94.5 -26.5 56.041399464780824
4.5 -18.5 55.1984497405893
150.5 -45.5 57.24535640908038
9.5 -44.5 56.72328517885593
-156.5 -39.5 55.27110993635318
2.5 -34.5 55.481268727592735
24.5 -43.5 55.90930989947273
-106.5 -68.5 56.525152360773106
47.5 -52.5 56.7266294318036
6.5 -60.5 54.76403153972348
-36.5 -1.5 58.27376180427443
-156.5 21.5 52.49992029183024
38.5 -52.5 55.690559496660846
77.5 -52.5 56.40893414299142
-156.5 37.5 56.2935309215529
-158.5 27.5 56.63937927557173
-23.5 34.5 60.420673266377406
46.5 -50.5 58.255362294490986
-160.5 37.5 56.10231584084282
-13.5 -64.5 56.45169198268972
-51.5 53.5 55.509271870881946
-54.5 11.5 55.49785597577517
149.5 -40.5 58.91506800720641
-97.5 -65.5 56.564398789436254
-33.5 -27.5 55.99351358640203
-102.5 -67.5 56.41375672835245
-0.5 2.5 56.24924957713356
3.5 -36.5 55.03380521274506
89.5 9.5 58.46998791526283
101.5 -6.5 52.944826615443965
-99.5 -66.5 56.50459680967686
-116.5 -70.5 56.15499880159417
40.5 -51.5 56.31534712367642
12.5 -60.5 54.870881545894974
50.5 -18.5 56.4644076159929
47.5 -25.5 54.627139674709206
-49.5 60.5 55.95419523952657
90.5 11.5 57.82008293162641
-151.5 -74.5 59.21434307750568
-33.5 15.5 55.36733271577373
94.5 -23.5 55.91429628970256
-143.5 -73.5 68.64929285429112
-151.5 -20.5 58.167432943669944
4.5 -41.5 55.76834316328126
51.5 -16.5 57.70630103371919
-50.5 8.5 55.340235701044556
92.5 16.5 57.4686598428506
179.5 42.5 56.38499036386337
-151.5 -21.5 58.39473186132619
-151.5 -24.5 57.46046918446528
136.5 22.5 62.497942330192934
-150.5 3.5 55.71135348617212
-46.5 37.5 55.33639689740471
72.5 -50.5 57.296196399960444
-168.5 44.5 57.15790998980645
-60.5 16.5 50.63112123904137
78.5 0.5 57.9143378599341
-153.5 35.5 56.68292812254734
-95.5 -63.5 56.01902157501917
-148.5 -5.5 55.30524564362433
-112.5 -69.5 56.3408708069582
64.5 -52.5 59.08849086632552
-151.5 10.5 55.92064939158626
88.5 6.5 57.152604010841245
97.5 -20.5 55.03411386672325
-158.5 26.5 57.556617002132164
75.5 10.5 54.40582534760963
41.5 -51.5 55.44790073542421
-37.5 -1.5 58.69413997970957
17.5 -61.5 55.31964845038465
-39.5 -42.5 55.56832777372817
30.5 -44.5 57.238238703623274
-152.5 -15.5 57.086718544053504
-25.5 32.5 58.05505948763328
-153.5 30.5 56.562820324743726
96.5 -22.5 55.695979593897725
25.5 -43.5 56.376956905756686
42.5 -51.5 55.38963369438138
-40.5 -46.5 55.57868742424998
-153.5 34.5 56.733754966320774
-47.5 6.5 54.375841048073006
164.5 54.5 57.62178065821447
51.5 -13.5 57.386882620999174
-153.5 31.5 56.38927689257137
-140.5 -73.5 58.54798639803355
87.5 6.5 56.89806570481838
-40.5 -45.5 55.635005316453544
-31.5 -17.5 56.65660890643675
-120.5 -71.5 55.10974800364471
-148.5 -12.5 58.25353100332397
9.5 -45.5 56.8344430924055
-58.5 84.5 54.67707411415921
-59.5 26.5 56.11059621366612
-91.5 -63.5 56.47746534545175
-32.5 -51.5 57.25823102242481
177.5 42.5 56.722188754738234
-153.5 33.5 56.7009908295092
-41.5 48.5 56.522335423760154
-30.5 -11.5 56.67120565557341
1.5 -9.5 56.13920610149372
-149.5 -31.5 56.57264874672008
-28.5 -5.5 56.93736366303677
-148.5 -1.5 54.68016632020933
-179.5 42.5 56.44081057853533
26.5 -43.5 56.41943743041935
-141.5 -73.5 72.06995036065378
-168.5 43.5 57.27929741341702
47.5 -54.5 55.32751723371936
-32.5 20.5 55.931094602753326
9.5 -46.5 56.63302121450536
21.5 -41.5 53.85869952546733
41.5 -34.5 55.77734640790492
-158.5 25.5 57.576407880085156
-133.5 -72.5 62.98447084522596
-115.5 -70.5 56.949235514114164
-148.5 -6.5 54.84125732533239
98.5 -13.5 60.125900789317846
-20.5 -65.5 57.49500781754126
-153.5 32.5 56.43599242094799
-151.5 -25.5 57.397860787580996
68.5 -50.5 57.74247775954152
112.5 -63.5 55.13966357839095
-156.5 36.5 56.250644712852335
-142.5 -73.5 70.15482146406752
-150.5 -13.5 57.47463398675249
-157.5 23.5 62.1900747130913
134.5 21.5 59.72729981274903
-31.5 25.5 52.25180357149966
2.5 0.5 56.5559420018511
2.5 -61.5 55.12229537840697
-30.5 11.5 52.6400724649641
-29.5 -66.5 57.703356474847595
8.5 -43.5 57.0016453161968
37.5 -52.5 56.96133571581732
177.5 77.5 66.71283394290317
-151.5 20.5 57.61428236121307
95.5 -23.5 55.35040086238362
-150.5 -74.5 58.894718230297855
5.5 -42.5 57.01001161448679
-0.5 -62.5 55.46357975881593
-41.5 42.5 55.61252712163148
45.5 -50.5 58.466971043731604
-56.5 30.5 56.555719984292146
2.5 -11.5 55.46066800538402
-139.5 -73.5 60.18701332469083
-151.5 9.5 55.896376342269924
-152.5 -16.5 55.27317067675527
-132.5 -72.5 68.80120348567567
-151.5 -26.5 57.83276857474376
-32.5 -26.5 56.64338976960331
-151.5 19.5 56.868497835170345
-33.5 -28.5 56.039324835726894
-96.5 -64.5 56.547897103521926
-59.5 23.5 58.606392764242266
149.5 -41.5 59.269944117170326
-158.5 24.5 58.598065679114455
4.5 -20.5 55.03317583550348
-60.5 20.5 57.08924592782175
22.5 -42.5 55.26362699267941
-98.5 -66.5 56.77453453522286
-168.5 42.5 57.15093430150825
49.5 -20.5 54.318302313314895
48.5 -24.5 56.14743951366294
122.5 -36.5 57.065425085862536
48.5 -23.5 56.14700081628446
-101.5 -67.5 56.60253350750668
-158.5 28.5 56.89177473505759
-94.5 -63.5 56.05495946948915
-44.5 38.5 55.19404804393281
-31.5 -18.5 56.47798790047213
-6.5 -64.5 56.716203148406805
-151.5 18.5 56.70273330610311
48.5 -29.5 54.772540061330446
-92.5 -63.5 56.12334575988967
46.5 -52.5 56.35152393092436
-40.5 -47.5 55.69048703248319
-32.5 -25.5 56.65244511015758
-150.5 -29.5 57.76241280089771
-17.5 5.5 54.34492587294454
11.5 -60.5 55.13359956842396
89.5 10.5 57.47260258350642
-111.5 -69.5 57.94981302964658
-148.5 -7.5 54.989743368504776
-105.5 -68.5 56.57952731991263
99.5 -12.5 58.21144721701146
-148.5 -2.5 54.39026218146404
-177.5 -46.5 56.34733774261842
49.5 -21.5 56.52940634166593
-119.5 -71.5 55.883928701339386
-35.5 -32.5 55.551731181640555
49.5 6.5 54.41977550754506
-148.5 -11.5 57.974686830615994
-148.5 -4.5 55.35654705705404
77.5 6.5 53.40158558169889
98.5 -18.5 56.470995491840064
-157.5 37.5 55.86226918114514
-14.5 47.5 53.7453524733862
4.5 -21.5 55.026353649841276
3.5 -22.5 55.62275709456955
4.5 -40.5 55.040288119136015
-30.5 -10.5 56.4592721475316
36.5 -52.5 56.7464586704019
-48.5 51.5 55.0184217460459
-51.5 34.5 55.55842757694999
50.5 -17.5 56.046452160296894
-40.5 -44.5 55.19991315339724
-28.5 -3.5 57.09196339614451
-152.5 -23.5 58.087364445489584
-114.5 -70.5 56.40782768289722
-7.5 -64.5 56.54227725414564
-52.5 62.5 53.484591323788734
108.5 -35.5 55.294669161013836
-39.5 -37.5 55.98043615876869
-55.5 31.5 58.048574814422985
-152.5 -17.5 57.02568159897941
-155.5 29.5 56.90995929569203
27.5 -43.5 56.56674872174919
62.5 23.5 55.31605956243281
-149.5 1.5 55.15052914528741
-178.5 42.5 55.75331446735166
-152.5 -22.5 58.32898064414862
48.5 -28.5 54.25218666544794
3.5 -13.5 54.6762916743861
77.5 1.5 57.27303583396555
-39.5 -38.5 55.73012712649254
-138.5 -73.5 60.15405845596514
-154.5 35.5 56.609682885163814
-151.5 -27.5 57.8313887259646
-154.5 30.5 57.15570359322845
2.5 -33.5 54.97961066016117
-39.5 -39.5 55.59133691694261
168.5 86.5 56.109720648209446
-148.5 -3.5 54.65719964902064
57.5 -54.5 55.928085283905574
-168.5 41.5 57.51066310199002
-148.5 -8.5 55.8853209808896
-58.5 27.5 56.704930653273315
123.5 -63.5 55.34795481767523
116.5 -63.5 55.150672016942075
-39.5 -40.5 55.34483898311936
-30.5 27.5 55.41101176697653
-151.5 8.5 55.747490848089
2.5 -3.5 56.033362228113944
-39.5 -41.5 55.19181847200422
-148.5 -10.5 56.41310895521723
102.5 -31.5 54.8982369662763
27.5 -44.5 54.8633600389225
31.5 -54.5 56.1659970863597
-173.5 -25.5 57.083341628852146
7.5 -60.5 54.956135851707884
-93.5 -63.5 56.05495946948915
4.5 -39.5 54.74726199990275
-152.5 -24.5 58.059668734428904
-104.5 -68.5 56.57952731991263
-12.5 -64.5 56.46247119660071
-149.5 -12.5 58.238601004350656
4.5 -15.5 54.62587446093473
-149.5 -74.5 59.61559190021313
-32.5 -29.5 55.82261771003757
-31.5 -19.5 56.18504265542298
-154.5 34.5 56.84735333167195
-148.5 -9.5 56.11643610219464
-152.5 -14.5 58.175319724308835
91.5 13.5 57.25874150858785
117.5 -63.5 55.70692388731352
-19.5 -65.5 57.284620125646704
-38.5 -34.5 56.86323086668307
-152.5 -21.5 58.307607301531995
-152.5 -18.5 55.55458335945923
3.5 -35.5 54.91095984421433
115.5 -63.5 55.16067201694207
51.5 -15.5 56.78229440501114
99.5 -29.5 52.93679936090009
10.5 -42.5 56.90663138331553
-151.5 17.5 57.00879574438074
-32.5 23.5 55.112423060824995
-95.5 -64.5 56.24763451725626
48.5 -22.5 58.02143698980613
-154.5 31.5 56.412838994939854
-37.5 -33.5 56.3619243017344
-26.5 9.5 55.93271205014968
43.5 -51.5 55.40488137708039
-157.5 -75.5 56.56309715356342
-156.5 -75.5 56.561988431092914
-154.5 33.5 56.59839759178587
61.5 -53.5 56.17517090719984
39.5 -52.5 55.88433334091292
-38.5 -1.5 55.90445903542778
-174.5 -25.5 58.29020342682134
47.5 -53.5 55.79928523352814
-169.5 -26.5 56.86371369985921
-2.5 -63.5 55.85251964598134
2.5 -1.5 55.61484569958134
59.5 -54.5 55.144149673856575
-152.5 -20.5 58.10398143008522
85.5 3.5 56.02972583153969
-157.5 -25.5 57.045514229312815
52.5 -57.5 54.979463223960046
-152.5 -19.5 57.480093531555234
-172.5 -25.5 57.176585543300774
-148.5 -74.5 58.913143424649846
-17.5 38.5 59.09991299159369
-28.5 -66.5 57.635436343105646
5.5 -24.5 52.898832069938344
-159.5 27.5 57.55162464992779
-157.5 22.5 59.39347707965833
-158.5 -25.5 57.781514429797355
-154.5 32.5 56.57719429569067
-100.5 -67.5 56.510948802060575
-168.5 -26.5 56.8206174760044
64.5 22.5 54.7062972447902
-91.5 -64.5 56.33156504714433
-24.5 8.5 55.16756833372087
-1.5 3.5 56.84921735590161
45.5 -52.5 54.65353761021079
113.5 -63.5 55.21069433096561
6.5 -43.5 56.938176399129325
16.5 -61.5 55.07071025557554
-110.5 -69.5 58.22706962704384
10.5 -60.5 55.13973435279484
-167.5 -26.5 56.15253717928448
-170.5 -26.5 57.702157203659766
-159.5 -25.5 57.3356232765546
-32.5 19.5 55.45988307940178
-168.5 40.5 56.37778865371707
-31.5 12.5 51.18280957746379
-42.5 40.5 55.66107178611811
2.5 -0.5 56.28987108230147
48.5 -55.5 55.7566830082281
-103.5 -68.5 56.709988285171605
-157.5 36.5 55.79772916906433
-43.5 50.5 56.14388979600302
-18.5 6.5 54.30769024116692
101.5 -30.5 54.56644067575086
48.5 -56.5 55.36378453911726
29.5 -44.5 57.33589494732692
-34.5 -31.5 53.55094593841136
63.5 -52.5 58.54103798831174
45.5 -51.5 55.919137338720276
-37.5 -48.5 55.67913309128737
22.5 -60.5 54.92074814845798
4.5 -19.5 55.20107743109968
38.5 -35.5 56.08062977761106
66.5 21.5 55.99157099535932
105.5 -63.5 57.09306911150572
-33.5 -30.5 54.69009855520105
-162.5 -75.5 54.86999520978699
4.5 -26.5 53.80578602625513
-151.5 7.5 55.34094311429099
-97.5 -66.5 56.319811778414056
121.5 -63.5 54.35928400916812
-175.5 -25.5 50.95361689673646
101.5 -7.5 55.082252271922904
49.5 -19.5 52.12934025919626
-155.5 -75.5 55.70999599949222
-53.5 33.5 56.43531351786801
100.5 -9.5 57.0418022906639
-158.5 37.5 54.675987920464806
-171.5 -25.5 57.37706938376976
120.5 -63.5 54.11760823246306
-160.5 -25.5 56.830145818807644
-152.5 -25.5 56.858600945373446
-39.5 -36.5 55.128196466563814
-163.5 -25.5 55.33534688927832
-113.5 -70.5 56.95808231422718
51.5 -14.5 56.13170903241999
8.5 -44.5 55.8076398613265
-151.5 16.5 55.96161523335636
-161.5 -25.5 55.168336916364076
-31.5 -2.5 58.444862122036646
-147.5 -74.5 58.95677347482034
-159.5 37.5 54.721785304585076
-162.5 -25.5 55.32348237422045
-156.5 -25.5 56.71701161168988
-31.5 -20.5 54.84527363418726
3.5 -61.5 54.96798658394753
97.5 -28.5 54.667822309375815
-54.5 32.5 56.182259075063186
-171.5 -26.5 57.187793461406244
-41.5 -66.5 56.48521448009435
-171.5 44.5 57.97240039547513
23.5 -42.5 53.278847072735395
4.5 -38.5 54.52332270488917
-159.5 26.5 56.68054017095648
-164.5 -25.5 54.95310970091495
-53.5 63.5 54.101914211130754
-158.5 -75.5 55.422174074176816
114.5 -63.5 55.12671959953643
165.5 53.5 55.9522886070417
-151.5 -13.5 57.77944343775425
-57.5 29.5 55.46730641005587
-8.5 -64.5 56.028298396843404
-2.5 3.5 55.6560467590796
-109.5 -69.5 58.414565321442545
-166.5 -26.5 55.49642544397333
-47.5 5.5 41.54980686901137
58.5 -54.5 54.812175184805916
173.5 -12.5 64.56441716612179
-169.5 44.5 57.15822313224161
-15.5 3.5 55.58273197036075
-161.5 -75.5 56.63019954197685
-151.5 15.5 57.009005511343055
-94.5 -64.5 55.24797299077673
-32.5 18.5 54.45364191890799
149.5 -45.5 56.22791098316201
8.5 -60.5 54.73184763076474
98.5 -14.5 57.39905978760874
-13.5 45.5 52.888244793227194
-163.5 -75.5 55.72434863197772
-60.5 21.5 55.892005469962584
-153.5 -23.5 56.76875039424586
-31.5 -13.5 54.9143194747479
2.5 2.5 56.418390134167375
-137.5 -73.5 60.769281971831305
-149.5 0.5 54.335309203010176
-155.5 -25.5 55.334518909268716
-166.5 -25.5 54.97836514396714
-96.5 -65.5 55.68311297823136
-32.5 13.5 52.10123837939533
-108.5 -69.5 56.56580946203814
-155.5 30.5 55.96712794911305
-155.5 35.5 55.29014320071283
-92.5 -64.5 55.32382115012646
2.5 -29.5 53.43203496623334
132.5 25.5 57.886264198998816
83.5 -1.5 57.74539290650061
9.5 -60.5 55.04708796668206
-165.5 -25.5 55.38817077799473
122.5 -63.5 54.23642949286359
98.5 -15.5 56.78430764681386
96.5 -23.5 54.60535310161656
-153.5 -24.5 56.440580032919996
-170.5 -25.5 57.18170837664174
2.5 -10.5 54.48904516553447
28.5 -44.5 55.519110695087996
-29.5 28.5 54.25494268796967
50.5 -16.5 56.4566942044408
67.5 20.5 55.19933060094754
-56.5 12.5 56.1009399180675
-172.5 -26.5 57.069013232700875
42.5 -33.5 54.18445817623201
-40.5 -43.5 53.60517987676635
77.5 2.5 53.72374144230184
-152.5 20.5 57.632611018705305
-16.5 41.5 56.23629104249337
-158.5 23.5 59.09925475864761
7.5 -43.5 54.98515156395466
98.5 -16.5 56.92104310225812
-59.5 15.5 44.026088859400964
-167.5 -25.5 55.17745053689489
118.5 -63.5 53.440322658843016
-151.5 14.5 57.500650646942205
94.5 -25.5 55.34099612479321
-168.5 39.5 55.86205811786573
-11.5 -64.5 56.33161843007653
-165.5 -26.5 55.57442795111902
46.5 -31.5 53.81791990092556
79.5 0.5 56.228109814273196
98.5 -20.5 55.49626345684803
-169.5 -25.5 57.00994051635978
-150.5 2.5 54.616217534092364
-153.5 -22.5 57.91645384231352
-159.5 25.5 57.27501377203216
-168.5 -25.5 56.29309299597764
-45.5 3.5 52.1418165817674
-99.5 -67.5 55.71390147928788
2.5 -32.5 54.32014029505302
-31.5 -21.5 54.79039879993428
-151.5 6.5 55.34031804694914
31.5 -43.5 56.06577887596671
-28.5 -4.5 55.698252105909944
-152.5 19.5 57.883987096474335
-61.5 18.5 37.8534780026484
-149.5 -11.5 57.262670224561234
-155.5 -24.5 55.76578805398528
-159.5 -75.5 55.3774184085104
93.5 17.5 54.23821622032899
-155.5 34.5 55.444137327100655
44.5 -51.5 55.74843339579408
-164.5 -26.5 55.38092077799648
94.5 -24.5 54.956309236208305
-32.5 -52.5 54.54930096200214
149.5 -42.5 57.58522405603023
-49.5 35.5 54.75486298645451
-160.5 -75.5 55.91688656621847
119.5 -63.5 52.90239619094082
-59.5 24.5 57.854609473073126
-18.5 -65.5 56.73687004488681
-174.5 -46.5 55.333790307755315
-92.5 -66.5 55.71015092286932
-27.5 -66.5 56.68816528526834
2.5 -7.5 55.185759596898016
-102.5 -68.5 56.046533426026315
-154.5 -24.5 56.175189022381446
5.5 -41.5 56.18675379868615
-93.5 -64.5 55.25420070951575
-31.5 24.5 54.456820184533655
-57.5 13.5 56.38200317675888
-28.5 29.5 53.18528154164531
-156.5 -24.5 55.62236635824132
-45.5 38.5 54.32106314802106
32.5 -42.5 56.22333295595153
45.5 -32.5 50.97190184203113
-155.5 33.5 55.444137327100655
-152.5 18.5 57.42860422966845
-12.5 45.5 51.96528670319842
-34.5 -28.5 55.1614370779507
-173.5 -26.5 56.87172878161974
-150.5 -12.5 57.71703304619413
-112.5 -70.5 61.90457822505754
2.5 -31.5 53.540111295449705
4.5 -37.5 54.682007337725544
-163.5 -26.5 54.896561575392276
-31.5 -23.5 54.73482190213876
-54.5 10.5 54.94497127641361
-154.5 -75.5 66.7393353493124
-19.5 7.5 54.68367531746013
88.5 7.5 56.052637838734384
-155.5 31.5 55.580509678840826
54.5 -56.5 55.006290103077575
18.5 -61.5 54.666910272277654
81.5 -0.5 57.90614473502137
-153.5 -21.5 57.47754252186051
-41.5 -46.5 54.689785524841106
129.5 23.5 58.22855981342298
49.5 -57.5 55.05460654140327
-155.5 32.5 55.444137327100655
-95.5 -65.5 55.66625852491704
3.5 -34.5 54.69756557482365
24.5 -42.5 53.12353714983732
-146.5 -74.5 70.42796552197268
47.5 -27.5 54.11756171507038
-40.5 -42.5 53.59968801000855
-9.5 -64.5 56.4423896993929
-159.5 24.5 59.08146418363338
-152.5 -26.5 55.70700115536341
-41.5 -45.5 54.376749706526844
40.5 -52.5 53.75087730721937
-174.5 -26.5 56.68784735042072
50.5 -5.5 55.86025671670259
-49.5 7.5 49.71740745118186
-153.5 -25.5 55.41817970056536
-162.5 -26.5 54.90767692693307
-39.5 -35.5 55.339063578667286
-32.5 17.5 54.649595716669
-156.5 29.5 56.037238799034256
3.5 -12.5 53.51074763418796
-40.5 45.5 53.41658896865928
-154.5 -23.5 56.71987222918028
-177.5 42.5 56.467820757206916
50.5 1.5 54.7819063748387
6.5 -42.5 56.271752721051136
-10.5 -64.5 56.33161843007653
-164.5 -75.5 56.87430474121603
41.5 -52.5 52.942168513651595
-149.5 -0.5 53.98787157018533
87.5 7.5 56.130164894503224
-59.5 25.5 57.132069468963465
-157.5 -24.5 56.11034295537095
78.5 5.5 53.902824745306816
-157.5 21.5 51.65035876485976
-48.5 36.5 54.99421128774747
-168.5 38.5 55.753938271604376
78.5 4.5 53.7950785543414
-136.5 -73.5 69.03151835272074
-107.5 -69.5 58.01437497276672
9.5 -47.5 56.45530069039529
-31.5 -22.5 55.023216323465455
5.5 -16.5 53.564690066375825
-53.5 9.5 53.477856577743395
0.5 -62.5 54.9097399927513
-5.5 -64.5 56.240101904137646
164.5 85.5 54.296269786004615
-170.5 44.5 57.2850204395391
-161.5 -26.5 55.01931354585059
-154.5 -25.5 55.50473439317531
-169.5 43.5 57.42648662557116
-175.5 -26.5 52.15685231507593
-44.5 1.5 53.64204628311877
-152.5 13.5 57.52700905718896
-158.5 36.5 54.74191764395491
50.5 5.5 54.58410639889263
-151.5 5.5 55.45018339171832
69.5 -50.5 55.8488165527012
-156.5 35.5 55.35025954254193
4.5 -36.5 54.57945187117926
69.5 19.5 53.75362081105752
-47.5 51.5 54.214062899486116
-165.5 -75.5 56.81881262409376
8.5 -45.5 55.84422203331258
-98.5 -67.5 55.74905472756109
-149.5 -36.5 54.494643200914
-153.5 -20.5 57.803095332236374
35.5 -53.5 55.590880996473146
-159.5 28.5 56.41889998262679
39.5 -34.5 55.560933889653505
-15.5 44.5 54.523533005931064
-40.5 46.5 54.38109130947501
2.5 -30.5 53.642494104361994
-149.5 -10.5 56.15573049294627
46.5 -53.5 54.76973117832375
-45.5 -65.5 60.08060878748322
-27.5 10.5 54.098701506693295
-60.5 22.5 58.52156869269896
-160.5 -26.5 54.97692109441147
-32.5 -24.5 55.09337855550698
4.5 -61.5 54.866754491428104
-7.5 45.5 57.01118637721299
24.5 -59.5 54.562333283141704
4.5 -14.5 54.088065123504684
-9.5 2.5 54.84389131223193
-156.5 30.5 56.051727822513676
2.5 -6.5 55.08942491416867
-159.5 -26.5 54.89896435550305
-32.5 -14.5 54.86810748964152
27.5 -57.5 55.32498936002965
-160.5 27.5 56.88898428932442
-26.5 31.5 56.64986703517452
-41.5 -47.5 54.40276062330597
-101.5 -68.5 56.31640218565725
63.5 23.5 54.23484523829277
47.5 -55.5 55.09738240523118
-51.5 8.5 56.062501577606916
25.5 -42.5 53.01764934865547
-94.5 -65.5 55.39584321688861
46.5 -26.5 53.45355966965478
-158.5 -24.5 56.9304348061869
-31.5 21.5 54.2518441411775
-111.5 -70.5 62.65271692658959
-58.5 28.5 55.99612163395101
-153.5 -19.5 57.92587175076729
-151.5 -28.5 56.39549129206589
2.5 -5.5 55.268537895314246
-158.5 -26.5 56.24515377339993
-154.5 -22.5 57.56157860128008
-55.5 11.5 55.11039809296283
-61.5 19.5 54.89641123426799
-155.5 -23.5 56.29833265089742
-92.5 -65.5 55.47537976729301
-152.5 12.5 55.77650378717089
-50.5 61.5 54.334148404698546
-166.5 -75.5 56.44419049074246
-167.5 36.5 54.781500973516266
-30.5 26.5 54.121286835604124
82.5 -0.5 61.059507392830284
-29.5 -6.5 55.6498974837507
68.5 19.5 53.29222195448448
-58.5 14.5 49.239789723777804
44.5 -52.5 52.31331527309986
114.5 -36.5 55.205450792278526
-33.5 -26.5 55.09133238221402
-149.5 -1.5 53.59082716586143
37.5 -53.5 54.13855980785127
22.5 -41.5 52.495586817132974
-96.5 -66.5 55.74840925891953
-149.5 -9.5 55.45259844745769
-156.5 34.5 55.396713084676406
-169.5 42.5 56.70880079198882
-32.5 16.5 52.68771180528548
-153.5 -18.5 57.278015763791124
98.5 -17.5 56.75218359202501
7.5 -44.5 55.87247427958542
121.5 -36.5 53.83688829656266
-152.5 17.5 59.06547180113792
-41.5 -44.5 53.768416035250276
47.5 -29.5 54.128694434834614
26.5 -42.5 53.55102039672684
-11.5 45.5 51.2604104382304
-159.5 -24.5 56.69218643144622
-26.5 -66.5 56.99997569124166
-168.5 37.5 55.219797111062135
-45.5 2.5 53.65194418546246
-16.5 5.5 54.256037906601215
38.5 -53.5 54.156298081396905
46.5 -54.5 54.64973833913506
8.5 -49.5 55.89058997124981
-90.5 -69.5 59.570382276286864
131.5 25.5 60.3415292549505
-158.5 22.5 57.53828924674681
-153.5 -17.5 56.93515954023522
-160.5 26.5 57.638663860103335
-156.5 33.5 55.35155399376731
-149.5 -8.5 55.31787105886312
-41.5 43.5 54.56934467308597
-149.5 -6.5 54.998685237382
-61.5 17.5 53.284658577241665
169.5 84.5 54.21667057884578
-93.5 -65.5 55.330543500071215
2.5 -9.5 55.18973660385529
-40.5 -41.5 53.88295721145693
78.5 6.5 53.92725303551502
27.5 -42.5 54.207007071965634
75.5 -51.5 54.663883214258185
-149.5 -7.5 55.218867110866206
-149.5 -5.5 55.22382867801324
-33.5 -29.5 55.31885693522775
-151.5 4.5 54.6490617650547
42.5 -52.5 54.13275168004966
-97.5 -67.5 55.75256224266046
5.5 -17.5 52.94220627136714
60.5 -54.5 54.95676309352433
-153.5 20.5 57.29003806982629
99.5 -13.5 57.23248966201075
8.5 -46.5 56.150990602842356
-175.5 -24.5 48.533120934834784
-173.5 -24.5 53.32417857088818
-157.5 35.5 55.5307233479143
-157.5 -26.5 56.141477740063976
-153.5 -16.5 57.169420828305036
5.5 -40.5 54.322854484322505
-156.5 32.5 55.460883602833775
-174.5 -24.5 50.67414369450128
-40.5 -40.5 53.88295721145693
-156.5 31.5 55.8305453929437
-160.5 -24.5 56.14969555863643
-149.5 -2.5 53.686347082399834
-33.5 -25.5 55.5449031220588
70.5 -50.5 57.689181281008324
30.5 -55.5 55.595030709912145
30.5 -43.5 56.755895725286834
-110.5 -70.5 69.13630970539269
-48.5 60.5 56.46510698197683
28.5 -43.5 56.24888046693189
-40.5 -39.5 54.07119051856956
-39.5 -1.5 54.99339312378632
-159.5 23.5 59.40018176550175
-100.5 -68.5 56.35366490283943
-149.5 -4.5 54.350276551618634
-154.5 -21.5 57.76135575921554
-156.5 -23.5 57.03138258318267
89.5 11.5 55.587373948156646
-32.5 -15.5 54.86356494112443
-161.5 -24.5 55.66038529539217
-95.5 -66.5 55.743007289522694
3.5 -33.5 54.54942467200708
-153.5 19.5 56.97064221548951
-32.5 14.5 52.421080132465825
-150.5 -11.5 56.19534859375246
36.5 -53.5 54.854317712233716
-162.5 -24.5 54.83480665444472
-149.5 -3.5 53.772651108360385
90.5 12.5 56.07454827101668
-52.5 34.5 54.71517499903299
-40.5 -38.5 54.39151371040127
-32.5 15.5 53.59162070149624
-172.5 -24.5 55.017719882174525
-150.5 1.5 54.328121991008636
130.5 7.5 57.32034146661216
2.5 -4.5 55.29350948591306
-163.5 -24.5 54.96143578514402
-169.5 41.5 56.728839402214454
36.5 -36.5 55.02834449490822
-157.5 29.5 56.04810513226632
-152.5 11.5 54.82872296899872
-160.5 25.5 58.297565491520544
-34.5 -27.5 54.81300999104866
-31.5 -12.5 54.968697135198525
33.5 -54.5 55.504246148910646
-27.5 30.5 53.91447414761735
-164.5 -24.5 54.90782524999125
3.5 -11.5 54.04143312684821
-40.5 -37.5 54.66318797735892
-153.5 -26.5 55.36104037088555
-153.5 -15.5 57.18918132482421
3.5 -2.5 55.24482466987142
45.5 -53.5 53.32650337851942
78.5 3.5 55.153001684819884
46.5 -55.5 55.08614236281417
-36.5 -32.5 54.68045101560997
101.5 -8.5 56.5445941377599
47.5 -28.5 54.257222411437425
65.5 22.5 53.668178271858544
128.5 25.5 54.31239601304804
-159.5 36.5 54.65609750081074
-152.5 -13.5 57.79208964492033
-10.5 45.5 50.82202813033996
97.5 -21.5 54.93924123708294
-103.5 -69.5 58.234522769951326
-6.5 45.5 57.606838487018365
-56.5 31.5 55.45030056711673
-165.5 -24.5 55.39819985098568
-157.5 30.5 56.41426195390824
-151.5 -12.5 57.6599938449065
-23.5 8.5 53.322507033770464
-153.5 18.5 58.317540006867986
-155.5 -22.5 57.11332053135684
3.5 1.5 55.78892723757397
-38.5 -48.5 54.38701646440901
104.5 -63.5 55.76238236773488
-171.5 -24.5 55.86355596771329
32.5 -54.5 55.67309087757303
21.5 -40.5 52.48218286956835
58.5 -55.5 54.322868835113105
4.5 -35.5 54.89316325741623
-156.5 -26.5 55.937681958902594
-168.5 -27.5 55.393223927829155
28.5 -42.5 54.79388125424458
43.5 -52.5 53.22597333899128
-48.5 6.5 47.42138938831
-29.5 -3.5 55.980834729659776
-17.5 -65.5 56.67958859973658
-166.5 36.5 54.863472822814664
-104.5 -69.5 58.012239252041425
-167.5 -27.5 55.31322739525883
-0.5 3.5 55.66813601767624
-152.5 -27.5 55.760288701541974
-46.5 4.5 47.751098334995774
166.5 52.5 55.12224967152198
56.5 -55.5 54.715063714501774
-170.5 -27.5 56.07519262918594
-106.5 -69.5 58.093355538312906
-169.5 -27.5 56.04601248049124
-166.5 -24.5 55.61977341810147
91.5 14.5 55.707386512553654
44.5 -53.5 52.478333984649645
-60.5 23.5 61.213761371320736
-51.5 62.5 53.48240467978257
5.5 -61.5 54.8847741256541
-94.5 -66.5 55.73400415049778
-57.5 30.5 55.647850045016966
-52.5 63.5 55.708550190896425
-61.5 20.5 56.572671547946484
-41.5 -43.5 53.81772845423529
-152.5 16.5 57.64152318457257
-32.5 -53.5 55.574905056647985
-25.5 9.5 50.94628191936822
-154.5 -20.5 57.71213171917212
-157.5 34.5 55.772744898845374
-42.5 41.5 54.08828587225661
-166.5 -27.5 55.28971561560583
100.5 -10.5 57.50729384556237
-15.5 4.5 54.5011379816456
90.5 -59.5 55.32469111473415
-99.5 -68.5 56.15025933309934
-41.5 0.5 54.919591159763016
-171.5 -27.5 56.38844305178947
-32.5 -16.5 54.89684187574659
-1.5 -63.5 55.21291479967621
5.5 -39.5 54.22340449050489
-158.5 35.5 55.66311863117688
-24.5 32.5 58.14982561236121
-170.5 -24.5 56.406996770214754
84.5 -0.5 56.96866356004526
-43.5 39.5 54.27762535442156
-109.5 -70.5 68.56527677741923
-167.5 -24.5 55.8290987273253
-23.5 33.5 57.56738782001733
57.5 -55.5 54.54811433775862
-35.5 -31.5 52.903606886670374
96.5 -27.5 53.399024512644594
-34.5 -30.5 52.87286961921787
-160.5 24.5 58.898346760987636
-155.5 -26.5 55.74178109463921
95.5 -26.5 54.851288658508174
29.5 -43.5 56.83824001162556
-35.5 -28.5 54.93067624048772
-157.5 -23.5 56.862133357979694
-169.5 -24.5 57.26223344441153
-168.5 -24.5 56.76416766089883
-157.5 33.5 55.72702448333692
-39.5 -34.5 55.099596012448266
-165.5 -27.5 54.692712234128074
-151.5 3.5 54.41002421547937
-169.5 40.5 56.57407015702623
6.5 -41.5 56.65743746455
5.5 -25.5 52.24588992854459
7.5 -42.5 56.07732924320262
-31.5 20.5 54.310653012775056
-154.5 -26.5 55.18743682727745
-152.5 10.5 54.826692123174816
-42.5 49.5 55.55899772009332
-25.5 -66.5 56.86842975775717
3.5 -28.5 53.35638032026717
-59.5 27.5 56.08953936621951
107.5 -35.5 54.72200269654971
-96.5 -67.5 55.75256224266046
78.5 7.5 52.63880236577877
-92.5 -67.5 55.61033806788413
50.5 -9.5 55.20116547320518
-8.5 45.5 55.28033171244063
-152.5 15.5 57.60002311195898
-161.5 27.5 57.359028313777465
-172.5 -27.5 57.19337154496923
-164.5 -27.5 54.86619060193638
-47.5 37.5 54.21678214438163
-150.5 -30.5 54.86314595663472
-93.5 -66.5 55.76024426153974
-38.5 -33.5 54.947238873613614
103.5 -5.5 44.9589868007205
-31.5 23.5 54.58840356263275
65.5 -53.5 57.40030572139604
-16.5 40.5 55.623535108469895
-157.5 32.5 55.72877613297547
93.5 18.5 56.61926471810476
1.5 -62.5 55.21710992279722
5.5 -38.5 54.706737087014936
-17.5 37.5 55.64974600475046
178.5 77.5 54.64057657869827
3.5 -1.5 56.090830200161456
34.5 -39.5 55.578029246283016
-40.5 -48.5 54.10495736332136
-168.5 36.5 55.00840664558464
4.5 -13.5 54.46108999905534
88.5 8.5 55.6234496630932
-160.5 -38.5 53.52119117692682
-157.5 31.5 56.14428859188005
83.5 -0.5 57.650306349595084
-102.5 -69.5 58.21175036161284
43.5 -53.5 53.940084347377045
37.5 -35.5 54.994482275262456
-150.5 -10.5 55.78233793471287
-40.5 -36.5 55.15562658601889
-178.5 -45.5 55.02583621081972
-174.5 -23.5 51.07542258557346
86.5 4.5 55.90294393951223
6.5 -44.5 55.716897191704426
40.5 -33.5 55.288712741044016
-163.5 -27.5 55.39979543612055
9.5 -42.5 55.78752437543626
-9.5 45.5 52.01220283589897
-39.5 -48.5 54.42725183288175
4.5 -22.5 53.57625257462959
-173.5 -27.5 57.75978509570852
102.5 -6.5 51.70220393163905
-174.5 -27.5 56.77930005870076
5.5 -15.5 53.68051288338766
-42.5 -46.5 54.59122197935477
9.5 -48.5 55.85267591492539
-29.5 11.5 53.28232283969081
-158.5 29.5 56.67302722424518
-160.5 28.5 55.935146536433
-154.5 -19.5 57.514775773739274
169.5 50.5 56.714411854624494
-22.5 34.5 58.56869601713671
2.5 -8.5 55.13452560535757
-154.5 -38.5 54.077921851356265
-32.5 -2.5 58.17616488120678
-152.5 14.5 57.4663334681401
-29.5 -7.5 55.00164000701104
71.5 -50.5 56.36158165143539
-175.5 -27.5 51.91929755620805
-155.5 -21.5 57.81256009511922
-150.5 0.5 54.294679409967976
-42.5 -45.5 54.32813531874481
3.5 -32.5 54.40772931753298
7.5 -45.5 55.842837281538884
-41.5 -42.5 53.540100094042316
92.5 17.5 55.70246753707442
-20.5 36.5 58.015610348604426
-156.5 -22.5 57.416961541736924
-162.5 -27.5 55.404754482755465
5.5 -22.5 52.85328922970091
-105.5 -69.5 57.50715346346832
87.5 8.5 57.01043870076974
-154.5 20.5 55.812886227124324
-153.5 -14.5 57.594550232487826
-152.5 9.5 55.185339516794784
-14.5 48.5 52.52876556921069
39.5 -53.5 53.50154490264325
-159.5 22.5 59.001243662767386
179.5 87.5 54.12625295747879
-98.5 -68.5 56.054209699151464
-170.5 43.5 57.54425424143401
-161.5 26.5 57.41839827850231
34.5 -54.5 55.68822443742572
23.5 -41.5 52.75296099894256
-30.5 25.5 54.07753249312138
95.5 -24.5 55.46930909897213
-153.5 17.5 59.06173074232716
-95.5 -67.5 55.57482497066375
100.5 -29.5 53.89827219267474
-161.5 -27.5 54.61684785415029
40.5 -53.5 53.29122685070983
-108.5 -70.5 67.59637023361783
-158.5 30.5 56.60449691177646
103.5 -63.5 55.68320847581812
-160.5 36.5 54.61774380024252
-159.5 35.5 55.499339477185394
129.5 6.5 57.5252202474735
3.5 -10.5 54.03759816051811
-158.5 -23.5 57.293492504724014
80.5 0.5 55.7387763599176
-169.5 39.5 57.31320542637134
-21.5 35.5 57.228709837528974
-55.5 32.5 56.547265246239
-40.5 -0.5 54.30775112402093
-160.5 -27.5 54.47697290775736
-54.5 33.5 56.29710721656761
-58.5 29.5 55.584266816869395
-32.5 -19.5 54.46437204498653
4.5 -34.5 54.48372668371395
-158.5 34.5 55.82132764591675
-154.5 19.5 55.90031912964721
-154.5 -18.5 57.57983683684369
13.5 -41.5 55.893689471417844
-42.5 -47.5 54.419216382359124
-160.5 23.5 59.110360447251075
5.5 -44.5 55.61657156202389
-41.5 -48.5 53.967229807530885
3.5 0.5 55.67469026059107
68.5 -51.5 57.25932493756512
-150.5 -9.5 55.51667153136831
-159.5 -27.5 54.974934569556524
-174.5 43.5 57.7599842093101
41.5 -33.5 54.913153690138785
-60.5 26.5 56.83753486876688
3.5 2.5 55.51989849901813
-152.5 8.5 54.86846874931521
3.5 -31.5 54.24699740324852
64.5 23.5 52.94103267458189
-158.5 33.5 55.642587215388524
6.5 -23.5 52.384322183351316
-31.5 19.5 54.05714617501069
-29.5 27.5 54.3184713492514
6.5 -61.5 54.89792735171035
-159.5 -23.5 57.04670345091708
48.5 -57.5 54.974063735112324
-101.5 -69.5 57.78456715966169
5.5 -20.5 53.36972690111037
-31.5 -11.5 55.328455426472395
-91.5 -68.5 55.78014618347668
-61.5 21.5 56.22391906492941
-161.5 25.5 58.65838430958619
-151.5 -11.5 55.98884844259724
78.5 8.5 51.528148698501155
-42.5 -44.5 53.76555566419685
-28.5 28.5 53.48423108806423
-32.5 -20.5 54.64522936726049
79.5 5.5 54.082923591709225
-14.5 3.5 55.47623498492164
-154.5 18.5 52.393675079510956
-165.5 36.5 54.359201337657304
7.5 -47.5 55.261594739006824
-158.5 32.5 55.739738759915426
45.5 -55.5 54.60486910212893
-150.5 -0.5 54.21278008980305
44.5 -32.5 51.777721877347666
19.5 -61.5 54.22242843342645
-159.5 29.5 56.78689926353887
-24.5 -66.5 56.998462524066596
-18.5 7.5 53.92177830889171
-170.5 42.5 57.60596052063205
-40.5 -35.5 54.95149217284314
5.5 -37.5 54.39230104866927
-43.5 -53.5 51.647845940080934
-32.5 -18.5 54.61214202361666
91.5 15.5 56.00296933115579
-158.5 -27.5 54.89612774969613
-155.5 -20.5 57.59797221098411
-29.5 -4.5 55.79056158077719
45.5 -54.5 54.339084842676286
-4.5 -64.5 56.451690710101964
-173.5 -23.5 54.242754216306714
69.5 -51.5 57.41489342062844
79.5 6.5 53.67304396972881
-32.5 -17.5 54.81362663460222
70.5 -51.5 54.56543626298127
-158.5 21.5 55.39388870171238
-60.5 24.5 59.632199629756485
-176.5 42.5 57.2929989687147
5.5 -36.5 54.202747161480005
31.5 -42.5 56.408623415322744
41.5 -53.5 52.9192794904084
-42.5 -66.5 56.827751089137074
-158.5 31.5 56.23435335508502
8.5 -42.5 55.625095283470166
-50.5 35.5 54.671827256307324
-34.5 -29.5 54.66801411341475
-154.5 -17.5 57.38775858919297
-151.5 2.5 54.36551707974735
2.5 3.5 55.006291333090076
-160.5 -23.5 56.505364899133504
-32.5 -21.5 54.440036649153875
-41.5 -41.5 53.827507973211276
-34.5 -26.5 54.896292888176006
-31.5 13.5 52.306982028805734
3.5 -30.5 53.58982096216595
-16.5 51.5 54.42450496556998
-150.5 -8.5 55.33767657025849
47.5 -56.5 55.00494299720954
-172.5 -23.5 55.98966167022173
-152.5 7.5 54.58614386143976
-29.5 -8.5 54.77695359334173
8.5 -47.5 56.02974700227044
42.5 -53.5 53.32623025004775
-32.5 -22.5 54.76651282609113
-157.5 -22.5 57.607447969272286
-171.5 -23.5 57.23606034509361
-32.5 -23.5 55.122797680211036
3.5 -29.5 53.962929749860926
4.5 -27.5 53.71042560360639
-94.5 -67.5 55.45370475842744
-31.5 18.5 53.81736035174609
-161.5 -23.5 56.61736810086527
5.5 -18.5 53.63292876900644
-30.5 -3.5 56.3498245944678
-41.5 -40.5 53.875519942340546
46.5 -30.5 53.499915866404464
-149.5 -32.5 54.856969923625805
100.5 -11.5 57.17937050604885
-97.5 -68.5 55.862196320364845
-162.5 -23.5 56.15747790114334
-16.5 -65.5 56.83248743400323
-160.5 35.5 55.161375784792746
-162.5 27.5 58.33591956218734
-46.5 38.5 53.87427047298402
-32.5 -54.5 52.42506605294131
-153.5 -27.5 55.59309163540602
19.5 -39.5 53.3960830861578
-152.5 -12.5 56.832860944674145
79.5 4.5 54.27225296088788
-17.5 6.5 54.0783398738849
-107.5 -70.5 67.59030260973745
-156.5 -21.5 57.49228887779866
-163.5 -23.5 56.00376896854986
79.5 7.5 52.95308958224521
6.5 -40.5 54.556754267498725
5.5 -45.5 55.421481275041025
-169.5 38.5 56.331164686309734
-150.5 -7.5 55.908474049441054
-164.5 -23.5 54.97582143655184
37.5 -54.5 54.45004924573807
-161.5 24.5 59.153309609138894
24.5 -41.5 53.84265238272152
-41.5 -39.5 53.91833705690914
-150.5 -1.5 53.7559208453964
-33.5 -24.5 55.25453372186994
-57.5 12.5 56.41228639489929
4.5 -12.5 54.34934357397862
173.5 45.5 56.69129265867439
177.5 83.5 52.93947565190848
-165.5 -23.5 55.24143285326402
130.5 25.5 58.786761502937786
29.5 -42.5 56.26497578454216
63.5 24.5 49.20227439762916
0.5 3.5 55.596146628578964
-41.5 44.5 53.70707411425751
96.5 -24.5 55.056629529252625
111.5 -35.5 55.339470251932696
-50.5 7.5 52.35711476920126
-159.5 34.5 55.59626388238761
-161.5 36.5 54.56154110313017
-159.5 30.5 56.88094653120525
-31.5 17.5 53.59248332495881
-49.5 36.5 54.39592768193113
-8.5 2.5 54.9980179627911
38.5 -34.5 55.40885496541241
-154.5 -16.5 55.8016599272888
-56.5 11.5 53.37184665603303
2.5 -62.5 53.52989558604159
-152.5 6.5 55.31242417413123
-150.5 -6.5 56.94568440715742
-151.5 -29.5 55.98938309224633
5.5 -14.5 53.30794989762198
-155.5 20.5 53.288936828460876
-41.5 -38.5 54.15648855165098
-166.5 -23.5 55.89832924760287
-22.5 8.5 53.72282223605518
-31.5 22.5 53.0378493630038
-170.5 41.5 57.0782972110327
103.5 -32.5 53.36982626870181
4.5 -33.5 54.481634150451775
-33.5 -49.5 55.57399868638377
-60.5 15.5 59.93996173998735
36.5 -54.5 54.62983377930922
88.5 9.5 56.45665182541042
29.5 -56.5 55.45261558287991
-52.5 8.5 51.6954456610547
7.5 -46.5 55.54278257875843
-42.5 -43.5 53.25399357317571
-159.5 33.5 55.68880845871501
-100.5 -69.5 58.12249888784926
59.5 -55.5 54.392166055961795
-160.5 29.5 56.35207759022373
-155.5 -19.5 57.45585017114051
-170.5 -23.5 56.77576058818312
-157.5 -27.5 55.97672684844003
3.5 -9.5 55.09926940693351
-160.5 22.5 59.514003622745975
-150.5 -5.5 55.929609797940756
-59.5 28.5 55.767930649111456
-41.5 47.5 55.076653383681695
-150.5 -2.5 53.72483454967628
106.5 -35.5 54.77046381118117
7.5 -41.5 56.126526168388864
-27.5 29.5 53.948853458855496
-162.5 26.5 58.89556986876274
-167.5 -23.5 56.281684715907325
-29.5 -5.5 55.586310304608745
-15.5 5.5 54.52852037050833
-161.5 28.5 56.89408118541656
-34.5 -25.5 54.97758062542345
7.5 -61.5 54.787326125368665
-41.5 -37.5 54.60316864195581
-153.5 16.5 57.35121718335747
64.5 -53.5 56.90603536010859
-154.5 17.5 54.810611404263526
-55.5 10.5 55.435979698669264
5.5 -19.5 53.4893472096468
-159.5 32.5 55.78889768364446
-36.5 -28.5 54.85087350117325
79.5 8.5 53.29863563708488
-153.5 13.5 58.15087033568114
30.5 -42.5 56.29155806093568
6.5 -45.5 55.54205022284749
-150.5 -4.5 55.11062900616252
-152.5 -28.5 55.6364558632325
-168.5 -23.5 56.52300424236861
-169.5 -23.5 57.52741705310404
-173.5 43.5 57.46376425980233
-150.5 -3.5 54.11179969828156
170.5 49.5 57.17295659001116
-153.5 -13.5 56.88695481851769
-151.5 -10.5 55.60876668559257
-171.5 -28.5 56.23745116083497
67.5 -52.5 57.947457563917716
-155.5 19.5 46.06955504957104
